-3.2579 5.08021 -3.25091
-4.44163 -3.16577 18.9809
7.8289 6.03095 0.133654
8.78225 -0.902905 10.0102
6.76053 -9.98513 9.98467
11.7877 2.51679 5.45082
5.51809 9.97697 9.99093
7.78187 9.98403 0.675283
-3.75068 -9.98434 -9.9867
11.7804 -3.56247 9.98767
-8.18693 -9.98635 1.69601
8.48912 -2.10123 18.988
-0.767868 -6.50803 -18.9841
9.2794 -9.98686 9.98081
-3.41585 -4.71248 10.0114
7.03351 4.63744 18.986
-6.79167 -9.98615 -9.98273
-4.53504 2.97601 -18.9851
11.7802 -2.85378 -9.98669
4.22366 -9.98911 -5.51843
7.14272 -4.50952 18.9873
11.7886 9.98492 2.90284
0.058334 9.97935 9.98963
-8.18751 4.37397 -4.14061
11.7912 1.79597 -5.77285
5.49381 5.94549 -18.9853
7.75876 -3.67302 -18.9883
0.861413 -6.98331 -10.01
10.6346 9.97933 9.9899
11.7857 9.98665 5.62234
-4.7926 -2.45718 -10.0092
-8.18656 -1.65943 5.80204
8.36966 -2.49838 -10.0063
-2.88528 -5.19393 -18.9859
11.7904 -4.64956 -3.84311
6.44779 9.98371 -3.82783
4.50566 9.98433 -5.38431
2.36671 7.01077 -10.01
11.7847 9.98752 -2.38102
-8.17367 9.97462 9.98155
-8.18497 -2.66854 9.98499
11.7826 -0.968693 9.98742
6.63894 4.82702 3.62608
0.009932 6.76097 18.987
6.23664 -9.98645 -4.09942
6.9773 4.75247 -10.0097
-0.226343 9.98623 5.65282
11.781 1.83884 9.98788
-8.18654 9.98418 7.79839
-3.9454 -5.7632 1.8213
-5.08826 -1.28447 10.0166
2.80505 9.98135 9.98811
11.7847 -3.86562 -4.61756
-4.38568 -3.29348 -18.9842
-2.9198 -5.17335 18.985
-8.1889 2.00298 5.69625
-0.770159 -9.99036 -5.48196
6.68299 4.88761 -3.53901
5.09088 9.98569 -9.98792
8.74934 -0.988677 -18.9852
11.7896 -5.73547 -1.87128
-8.18815 2.48211 -5.4847
-6.01759 9.9855 -9.9861
-8.18407 9.98718 -5.12665
4.11999 9.98569 5.56982
4.18202 -9.98175 9.98504
-8.18646 3.86162 4.63629
11.7838 -9.98655 7.57838
-2.2961 9.9874 -4.41794
-3.4566 4.65435 -10.0135
-8.18507 7.56954 9.98521
11.7856 7.42191 9.98485
11.7843 6.00294 -0.604125
11.7865 9.98724 8.5967
-8.18456 -9.98566 -6.09732
-0.698022 -9.98052 9.98678
-8.17472 -9.97877 9.97614
-1.78671 6.03628 -10.0113
-3.91355 9.98212 1.91143
-8.18647 -9.98393 -3.47868
-8.18838 5.34367 2.81192
-5.14889 1.07895 10.0116
2.71425 9.98057 -9.98879
7.32519 9.98993 -9.98172
-3.81387 9.9858 -9.98557
11.7891 -0.073409 6.02234
-2.78455 -9.98828 -3.92072
-8.18556 -9.98563 4.88815
11.7865 -9.98497 -8.80411
11.7846 -9.98637 -3.19694
-1.88305 -9.99153 4.76212
1.54398 -6.97257 -18.9843
-2.85581 -4.63919 -3.83293
-3.00467 5.13959 10.0088
7.53106 -9.98714 -1.86593
5.25057 -9.9855 -9.9836
7.81652 -9.98888 0.552917
-8.18671 0.843436 5.97971
11.7504 -9.98237 -9.97953
8.46203 2.25879 -10.0101
4.91989 -6.27144 18.9868
-0.955798 6.45481 10.0105
11.7882 4.15106 -9.98378
8.58562 1.6735 -18.987
-8.18741 5.68123 -2.01211
7.98516 -3.32522 10.0108
-8.18951 -7.59181 -9.97541
-8.1892 9.98366 5.21068
-5.21275 -0.088734 -10.011
8.63031 1.69377 10.0109
-5.6594 9.98111 9.98888
11.7864 3.76113 -4.72277
-8.18261 -0.321207 -9.98731
-3.23318 4.85154 -18.988
-8.18331 -9.98673 7.62423
-4.02023 3.86479 18.9865
-8.18287 9.98753 -7.57199
-3.58092 9.97966 -2.68929
-8.18468 0.224301 -6.01155
11.7862 -3.85283 4.63556
2.0527 9.98776 -6.03584
-8.18441 -7.65177 9.98373
11.7869 6.87781 -9.9893
11.7811 -9.98791 -6.11685
11.786 -6.02107 0.410069
2.06664 -7.01876 18.9883
6.57988 -4.78825 -3.68156
-2.3804 5.61138 18.9859
11.7847 -5.31231 -9.98658
11.7891 5.72955 1.92023
0.165327 -9.99008 5.80247
-8.1881 -5.9727 0.895824
-5.69262 -9.98589 9.98368
-1.38423 6.22782 -18.9838
-3.38062 -9.98121 3.07467
8.37461 -9.98632 -9.98539
5.84538 9.9876 4.45189
7.60167 9.98486 -1.61749
5.15301 6.14057 18.9872
-4.21252 9.98266 -0.526255
-3.59168 5.42232 2.67933
11.7806 1.80556 -9.98693
11.7844 -5.35575 2.74226
8.01692 9.97971 9.989
-5.15241 -0.851471 -18.9853
-3.12175 -9.98641 9.98447
7.14115 9.98317 2.77927
-8.18275 -5.34335 -9.98731
2.75703 6.91815 18.987
-0.669247 -6.54884 18.9851
11.7848 -6.36298 9.98713
6.20502 -9.98832 4.11176
-8.18787 2.3547 -9.9854
3.30667 -6.87721 10.0112
-2.35995 4.15512 4.35599
-4.74111 2.53163 -10.0139
1.36274 7.01785 10.0106
-8.18824 -5.16505 3.10019
-2.86776 9.98508 3.81726
7.54008 4.00924 -18.9849
11.7839 -9.98616 2.10395
-1.33541 -6.28933 10.0104
-8.18687 5.30168 -9.98548
1.8025 9.98702 6.03805
-0.668537 -9.98331 -9.98638
11.7861 -1.86931 -5.74028
-4.94741 1.85161 18.9829
-2.80451 9.98306 9.98988
-3.93923 -9.9868 -1.85284
4.8363 6.32696 -10.014
6.00415 -5.60178 -18.9855
11.7839 4.72033 9.98728
0.956714 6.9586 -18.9844
7.5234 -5.71985 1.91445
11.7834 -0.402454 -9.98644
11.7847 5.28627 -2.92529
7.57383 4.01994 10.0126
-8.18842 -3.9541 -4.56252
7.57809 -5.77561 -1.72359
-8.18862 9.98366 -0.349838
3.99867 6.68655 10.0094
-8.18166 2.32409 9.98634
-3.61589 -4.47386 -10.0111
11.7902 4.59807 3.92341
-8.18134 -5.27679 9.98829
6.01311 5.62804 10.009
-8.18475 -9.98476 -8.7907
5.96008 -5.6743 10.0085
11.7874 9.98485 -7.58345
6.32609 -4.51393 3.97927
7.20356 -4.48752 -10.011
8.42642 2.25842 18.9874
11.7806 9.96574 -9.97928
-8.19041 9.98251 2.44427
3.9505 -9.9885 5.63633
-5.17149 -0.655516 18.984
-0.387988 9.98618 -5.63452
-8.17918 -2.87898 -9.98765
-2.73579 -4.5153 3.98049
-8.1853 4.89067 9.98583
11.7731 -9.97881 9.97862
5.34846 -6.07541 -10.0127
-1.50773 9.98177 -9.9887
3.25518 -6.89271 -10.0086
11.7782 -7.67127 -9.98934
1.87222 -9.98383 9.98575
-3.98434 -5.77456 -1.73873
-8.18699 -3.7941 4.70249
-4.21086 -9.98666 0.557786
0.884123 -6.97309 10.0124
2.29015 -9.98431 -9.98634
8.8297 -0.227012 -10.01
-8.18356 -0.116957 9.98632
11.7871 9.98507 -5.05634
-8.18772 -2.00125 -5.68231
-8.18192 9.96228 -9.97792
11.7826 -9.98814 4.83064
-8.18961 -5.40759 -2.66821
0.356319 -6.85647 -18.9842
2.10443 -7.03448 -10.0103
0.767921 -9.98328 -9.98658
-0.441978 -6.68595 -10.0095
-2.70483 -5.40066 -10.0094
-2.13779 -9.98294 -9.98802
6.78969 -9.98686 -9.98368
-4.85874 -2.16698 -18.9839
-1.85981 -5.96494 -18.9856
-8.18237 -3.99707 -9.98527
-5.09491 -1.33849 -10.0107
-5.12448 1.14639 -10.0102
-8.18189 -1.60704 -9.98802
-8.17628 -8.79077 -9.98854
-8.16654 -9.9768 -9.97854
-1.87588 -9.98465 -4.7879
-8.18804 -3.02639 -5.20883
1.61544 -9.98769 -6.02173
11.783 -9.9876 -4.66154
11.7839 -9.98633 -1.82329
11.781 -9.98765 -7.45582
11.7893 -6.47804 -9.98135
11.7866 -2.95823 -5.27655
11.7858 -0.653875 -5.99899
11.7796 -4.00935 -9.98804
8.67823 -1.45419 -10.0091
8.76766 0.98631 -10.0108
7.91195 3.45643 -10.0135
5.97273 5.64225 -10.0122
4.38007 6.506 -18.9832
6.58693 5.103 -18.9867
8.18546 2.8567 -18.9849
8.80312 0.411009 -18.9862
8.36246 -2.45262 -18.9867
-5.19402 0.414376 -18.985
-3.94294 4.00554 -18.9827
-2.69567 9.985 -9.98659
-8.18913 3.81855 -9.98449
-8.18672 0.968408 -9.98505
-8.18466 -9.98464 -7.46736
-8.18472 -9.98481 -4.71401
-8.18555 -9.98501 -1.1058
-8.18479 -9.98583 -2.32803
-3.49248 -9.98764 -2.88934
-3.95723 -9.98473 1.86909
-8.18682 -9.98627 3.27954
-2.70016 -9.98664 4.01037
-0.832921 -9.98992 5.40621
-3.44994 -5.24259 2.97212
-8.18958 -4.71749 -3.77841
-8.18899 -4.56074 3.95532
-8.18504 -9.98527 6.19091
-6.98143 -9.98783 9.98289
-8.18565 -8.83618 9.98436
-8.18189 -6.43737 9.98624
-2.40266 -5.63484 10.0118
-4.33946 -9.97809 9.98757
-1.88213 -9.98092 9.98733
1.36079 -9.98919 6.02204
5.50208 -3.732 4.73858
-1.85559 -3.65633 4.78397
-8.18504 -2.72213 5.3773
-8.18226 -1.42379 9.98632
-8.18644 -0.419856 6.02496
-4.85812 2.25951 10.0077
-4.39337 3.32883 10.018
-4.92342 -1.95263 18.9815
-3.78976 -4.2171 18.984
4.5761 -6.4662 10.0121
8.07054 -9.98524 9.98338
5.46677 -9.98853 9.98206
10.5228 -9.98516 9.98604
11.7828 -7.6447 9.98699
11.7875 -8.86377 9.98457
11.7838 -9.98662 6.17649
7.55421 -9.99069 1.8276
11.7848 -9.9864 -0.426379
11.7823 -9.98829 3.39796
11.7868 -9.98513 0.860383
11.7873 0.607853 -6.00432
11.7875 2.77879 -5.34626
11.7906 2.95346 -9.98084
11.7873 5.45259 -9.9862
6.17626 9.98326 -9.99018
3.85262 9.98656 -9.9863
1.6321 9.9817 -9.98965
0.629668 9.98441 -9.98439
-1.69177 3.54047 -4.889
-3.98942 9.9859 -1.74046
-4.88728 9.98637 -9.98522
-8.1884 9.98537 -8.85275
-8.18976 9.98403 -6.30424
-8.18943 9.98142 -4.02633
5.27525 -9.98904 -4.9291
7.01709 -9.98782 -3.01813
7.78553 -9.98761 -0.673589
7.77968 -5.98133 0.749665
11.7859 -5.80048 1.65515
7.05308 -5.24717 2.95747
11.7888 1.26634 5.8825
-8.18701 4.65639 3.84545
-8.18724 5.803 1.62145
-8.18958 9.98328 3.83768
-3.45246 9.98784 2.95599
-8.18713 9.98263 -2.80677
-8.18539 9.98471 -1.63354
-4.22266 6.03214 0.298228
-4.01863 5.81172 1.62561
-4.18959 9.98285 0.709511
-3.80711 5.61516 -2.20184
-4.1351 5.94381 -1.03809
-2.02438 9.98605 4.66398
6.53332 9.98782 3.70368
7.8238 9.98546 -0.456033
11.7868 9.98588 4.32253
11.7844 3.65478 4.77952
5.55693 3.7675 4.68428
11.7867 9.98512 0.213858
11.7832 5.76371 -1.78481
5.55879 9.98373 -4.72291
3.3343 9.98345 -5.83119
11.7884 9.98178 -6.27392
7.15252 9.98726 -2.7785
11.7874 8.58185 -9.98603
10.6851 9.99063 -9.98068
9.53715 9.97784 -9.99182
11.7872 9.98541 -8.88533
7.25394 5.47192 -2.5613
7.67484 5.87347 -1.35973
11.7867 4.59755 -3.88964
11.7849 9.98851 -3.70226
8.43746 9.98765 -9.98628
11.7847 5.99652 0.67232
11.7854 9.9867 -1.09012
11.7845 5.23625 2.9708
11.7908 -2.74402 5.38869
7.11487 -4.59003 10.0114
11.782 0.426765 9.98863
4.07426 6.60939 18.9863
6.13333 -5.49187 18.9866
3.50033 -6.79022 18.9873
-3.30271 4.77693 18.9835
5.03354 6.2358 10.0146
2.71908 6.97033 10.0098
-3.7518 4.31186 10.0128
6.76568 9.98358 9.98713
6.81389 4.92997 10.0097
4.11289 9.97792 9.99047
-8.1889 9.98261 6.53763
-6.96777 9.98199 9.98887
-8.18444 9.98551 8.90411
-8.17996 8.80066 9.98918
-8.1805 6.20554 9.98719
-4.19698 9.98006 9.9901
-2.10967 5.83341 10.0156
-1.2443 9.98191 9.98929
0.115544 6.8304 10.0102
1.41696 9.98178 9.98862
8.2173 2.87946 10.0116
1.32863 6.96487 18.9835
-5.17176 0.659368 18.9855
-4.55085 2.8996 18.9875
-1.24788 6.30023 18.9857
-1.87788 -5.95166 18.9867
0.62059 -6.90289 18.9873
7.93161 -3.37246 18.9849
7.84305 3.52017 18.9866
6.13851 5.50354 18.9828
8.76098 0.829761 18.9876
8.783 -0.650333 18.9892
8.82618 0.418338 10.0109
8.4993 -2.16414 10.0093
11.7805 -2.30995 9.98738
11.7799 3.11608 9.98989
11.778 5.97758 9.99081
9.31744 9.9777 9.99032
11.7747 8.68383 9.99242
11.7804 9.97499 9.96843
11.7902 9.98481 7.0011
7.57122 9.98402 1.72745
11.7884 9.98452 1.5102
7.65904 5.8566 1.40526
7.2313 5.4476 2.58704
5.06897 9.98683 5.0482
2.97193 9.9857 5.92377
0.696611 9.98576 5.93021
-1.13489 9.98237 5.25867
-1.55724 3.35485 5.00629
-8.18873 2.9538 5.25795
-3.03853 4.83136 3.60046
-8.18555 5.99997 0.383942
-8.18551 5.9621 -0.820908
-8.18986 9.98254 1.03297
11.785 -1.5253 5.83228
11.7828 -4.69918 3.76017
7.80939 -6.01806 -0.522471
5.14494 -3.33959 -5.03139
-8.18705 1.36414 -5.87269
-8.18866 3.47748 -4.90631
-8.18645 -0.917177 -5.93983
-2.55391 4.34972 -4.16233
-8.18788 5.15957 -3.10378
-8.18712 8.53226 -9.98493
-7.15558 9.98481 -9.98679
-1.47114 9.98521 -5.06204
-3.01213 9.99071 -3.63276
5.28026 3.48287 -4.92033
5.97407 4.20141 -4.33458
0.812897 9.987 -5.95637
0.165855 6.83187 -10.0107
3.31874 6.82733 -18.9885
2.20859 7.00369 -18.9834
-2.39497 5.59416 -18.9826
-0.238008 6.69885 -18.9856
1.22057 7.01243 -10.0111
-0.780025 6.51943 -10.0152
3.5431 6.8151 -10.0113
11.7839 0.733249 -9.98724
5.94308 -4.13386 -4.37602
7.18289 -5.39178 -2.68253
11.7831 -5.31791 -2.86968
11.7859 -5.98651 -0.771556
7.05054 -9.98912 2.97804
11.7839 -9.98686 8.81623
11.7861 -4.93398 9.9863
2.10234 -7.02449 10.0118
-4.74812 -2.53273 10.0159
-5.22002 -0.111188 10.0142
-8.18114 3.52495 9.98678
-8.18194 1.1151 9.98803
-8.18683 -4.05264 9.98384
5.13426 -9.98891 5.02202
2.64174 -9.98812 5.97737
3.0516 -9.9833 9.98714
0.579786 -9.9833 9.98577
-0.306538 -6.73219 10.0086
-4.15559 -3.71856 10.0148
-8.18393 -9.98443 8.80716
-8.18849 -5.67301 2.0637
-8.18716 -6.02722 -0.391053
-8.18541 -5.80878 -1.63601
-4.19785 -6.00328 0.65676
-8.18569 -9.98543 0.273467
-4.19235 -9.98722 -0.704329
-8.17884 -6.44394 -9.98762
-8.1886 6.67972 -9.98602
-0.394785 9.97903 -9.99095
-4.20133 3.65166 -10.0133
-2.62024 5.44865 -10.0111
-4.97659 1.77637 -18.9827
11.7829 -1.626 -9.98621
7.91289 -3.442 -10.0125
11.7894 -8.84194 -9.98154
10.052 -9.98815 -9.98364
0.382821 -9.98681 -5.85248
2.98502 -9.98869 -5.92579
-1.99156 -3.78884 -4.67103
-3.54106 -5.35407 -2.79134
-4.2066 -6.01357 -0.576867
-4.31568 -3.46948 -10.0104
-3.73732 -4.29241 -18.9858
3.9401 -6.6527 -18.9897
4.96719 -6.24359 -18.9819
6.94526 -4.73782 -18.9864
6.30655 -5.39376 -10.012
3.79359 -9.98424 -9.98535
-5.19301 -9.98295 -9.98797
4.2441 -6.58816 -10.0112
-1.65144 -6.11944 -10.0128
2.85824 -6.90297 -18.982
-1.31384 -6.23649 -18.9848
-0.205774 -6.68225 -18.9841
8.06061 -3.06282 -18.9875
7.35201 -4.20542 -18.9874
8.38554 2.2651 -18.986
8.69437 1.04225 -18.9866
8.5559 -1.72065 -18.986
8.75397 -0.840601 -10.0096
11.7836 0.165398 -9.98684
11.7831 -1.01423 -9.98632
11.7815 -2.23989 -9.98645
11.7864 -2.41377 -5.50842
11.7859 -1.26159 -5.86964
11.7892 1.20191 -5.88859
11.7894 2.28738 -5.55956
11.787 3.26996 -5.03452
11.7866 4.17934 -4.30621
6.96846 5.17976 -3.05016
6.80016 9.98549 -3.30316
6.00329 9.98372 -4.27537
7.71274 9.98516 -1.03676
11.7861 9.98591 -0.438131
11.7875 9.98482 0.862029
11.7868 5.4829 2.44551
11.788 9.98573 6.31172
11.2075 9.97716 9.97916
11.7835 9.98112 9.28256
11.7775 9.32941 9.98042
9.97602 9.97852 9.99011
4.81549 9.97744 9.9907
4.59448 9.98626 5.30901
3.54596 9.98569 5.74679
5.45718 9.98722 4.75004
6.18935 9.98771 4.07779
6.83723 9.98549 3.24148
7.35618 9.98359 2.25336
7.44517 5.6521 1.99615
6.93512 5.13731 3.10656
6.09793 4.29726 4.15518
11.786 3.08578 5.11517
11.7815 1.1328 9.98825
11.7871 -0.799354 5.92731
11.7882 1.89156 5.66666
11.7785 -9.98284 9.39742
11.7803 -9.42129 9.98159
11.148 -9.98199 9.98233
11.7852 -8.25423 9.98578
1.49323 -6.99879 10.0121
2.46191 -9.98357 9.98644
2.7045 -6.95085 10.0115
3.94138 -6.67171 10.0117
6.53748 -5.13216 10.01
5.26809 -6.07025 10.0103
7.41553 -9.98519 9.98403
11.7805 -2.93621 9.98752
11.7816 -1.63932 9.9874
11.7823 -0.270964 9.98803
8.64078 -1.53352 10.0098
8.80422 -0.242283 10.0105
7.19386 4.47495 10.0112
8.77199 0.089714 18.9884
8.21037 -2.73685 18.9865
6.63803 -5.0007 18.9869
4.21011 -6.53083 18.987
8.24223 -2.74468 10.01
7.55001 -3.95763 10.0111
8.72824 1.05605 10.0109
-3.78572 -4.21552 10.0131
-1.27356 -6.25025 18.9859
-0.024329 -6.72587 18.9862
-5.04745 -1.30407 18.9827
-5.17163 0.001926 18.9847
-4.45185 -3.12565 10.0154
-4.91819 -1.9086 10.0162
-5.15414 -0.697829 10.0154
-5.0035 1.66923 10.0096
-5.18445 0.483881 10.0129
-1.53273 6.14411 10.0131
-0.420127 6.6426 10.0103
-3.50075 9.98156 9.98999
-2.02441 9.98248 9.98958
0.737647 9.98057 9.98912
2.04091 6.99409 10.0102
-4.74913 2.37561 18.9852
-5.05959 1.25549 18.9842
-3.66147 4.32086 18.985
-1.81414 5.9558 18.9858
3.41565 6.76377 18.9866
5.64576 5.82205 18.985
4.61364 6.37498 18.9867
6.58601 5.07049 18.9844
7.43828 4.0788 18.9863
3.35888 6.82844 10.0096
2.111 9.98157 9.98837
6.4135 5.27901 10.0093
11.781 5.34896 9.98905
11.7801 8.05287 9.98864
11.7818 6.69975 9.98783
5.52332 5.93192 10.0118
8.13474 2.8893 18.987
8.5937 1.54409 18.9875
-0.618974 6.5306 18.9864
2.04283 6.94151 18.9852
0.669281 6.86292 18.9852
-2.84156 5.19415 18.9847
-4.28554 3.38219 18.987
4.5161 6.46117 10.012
0.739142 6.92412 10.0104
2.38722 9.98636 5.98091
1.24956 9.98639 5.98413
-0.680616 9.9843 5.45574
-2.69924 4.49324 3.97822
-1.9586 3.75498 4.68114
-8.1876 3.40771 4.94712
-8.18674 4.25901 4.24087
-8.19014 9.98252 1.73862
-8.18999 9.98289 3.14097
-3.683 9.98498 2.43371
-3.16011 9.98646 3.38663
-3.80516 5.61702 2.15247
-8.18781 5.57333 2.21668
-8.18924 9.9831 0.341566
-8.18701 9.98418 -0.991689
-8.18553 5.98104 -0.218483
-8.18675 9.9843 -4.57649
-8.18691 9.98561 -5.71545
-8.18632 9.98578 -6.93812
-8.18563 9.98645 -8.21237
-8.18786 7.60599 -9.98548
-8.18516 9.97383 -9.41533
-7.66875 9.97355 -9.98236
-2.1017 9.98339 -9.98765
-0.951257 9.9804 -9.98982
0.117442 9.98172 -9.98767
0.693213 6.92215 -10.0109
1.79364 7.0116 -10.0105
2.95491 6.91294 -10.0107
5.40452 5.9846 -10.0131
2.6935 9.98561 -5.93352
1.4328 9.98738 -5.99611
-3.78517 9.98278 -2.21487
-4.12065 5.92193 0.961919
-8.18808 3.92572 -4.52346
-8.18769 4.76677 -3.6222
-8.18764 5.4204 -2.55795
-8.1876 1.92313 -5.6787
-8.18729 1.66155 -9.98523
-3.25477 9.9854 -9.98608
-1.28337 6.27785 -10.0133
-3.03842 5.0515 -10.0123
-4.47122 3.09165 -10.0136
-4.93279 1.83901 -10.012
-1.8896 5.91099 -18.9832
-3.58806 4.42854 -18.9854
-4.75582 2.37619 -18.9839
6.04037 5.52425 -18.986
4.93694 6.22575 -18.9842
6.47502 5.19736 -10.011
7.44462 4.10445 -10.0116
8.61485 1.62255 -10.0105
11.7856 2.37951 -9.98388
11.7822 1.2694 -9.98709
11.7871 6.1652 -9.98775
11.7871 7.72983 -9.98767
6.75072 9.9866 -9.98595
11.7879 9.98331 -6.92869
11.7848 9.98802 -3.04164
11.7845 5.99973 0.034098
11.7838 5.88333 -1.19447
7.75187 5.95221 -0.613038
7.46439 5.6727 -1.96052
11.7857 4.94191 -3.40746
11.784 5.52499 -2.35505
11.7873 4.91716 3.4471
11.7869 5.86304 1.29628
11.786 9.98679 -4.3793
11.7873 9.98513 -8.23439
11.7878 9.98343 -5.66513
11.2328 9.97819 -9.97998
11.7839 9.97557 -9.43231
10.1111 9.98424 -9.98625
5.63357 9.98448 -9.98905
7.88132 9.98879 -9.984
8.9873 9.98275 -9.98905
11.784 9.2738 -9.98265
11.7894 3.55226 -9.98231
11.7878 4.80183 -9.98499
8.18699 2.85761 -10.0118
-0.811119 6.46334 -18.9847
1.58265 6.98114 -18.9839
2.76366 6.91551 -18.986
-4.23899 3.49078 -18.9839
0.359353 6.82872 -18.985
3.84941 6.66667 -18.9859
7.86277 3.43297 -18.9849
7.06351 4.55612 -18.9858
5.48567 -5.92268 -18.9837
4.45364 -6.44814 -18.9858
-2.37255 -5.57944 -18.9858
-3.3113 -4.74317 -18.9859
-4.62221 -2.73023 -18.9841
-5.00558 -1.50923 -18.9846
-4.55414 -2.96333 -10.0098
-4.94376 -1.89784 -10.01
-8.18466 0.323601 -9.98618
-8.18225 -0.964123 -9.98767
-8.18053 -2.24301 -9.98783
-8.18077 -3.43802 -9.98646
-1.04671 -6.40269 -10.0112
-3.16036 -4.93726 -10.0103
0.95015 -6.91452 -18.9842
1.48292 -7.00889 -10.0101
3.74964 -6.74044 -10.0099
4.52208 -9.98487 -9.98447
6.02013 -9.98618 -9.98364
3.60434 -9.9889 -5.72211
4.74945 -9.98907 -5.22377
6.62686 -9.98713 -3.55877
11.7858 -9.98577 0.217002
11.7854 -9.98565 1.48217
11.7831 -9.98722 2.75096
11.7859 -6.00379 -0.180744
11.7859 -5.91078 1.03261
11.7864 -5.52669 -2.37048
5.54401 -3.73673 -4.7037
11.7866 -0.023011 -6.00166
4.90745 3.1077 -5.13945
-0.193669 -9.98858 -5.66722
-1.32302 -9.9875 -5.13493
-2.94423 -9.98364 -9.98736
-4.47184 -9.98364 -9.98734
-3.13851 -9.98796 -3.40503
-4.06579 -9.98701 -1.27858
-3.71586 -9.98722 -2.37109
-8.18563 -9.98488 -2.90336
-8.18559 -9.98437 -4.09634
-8.18959 -5.06254 -3.22331
-8.18562 -9.98522 -0.416167
-4.09547 -5.89406 -1.1578
-3.04039 -9.98392 3.54252
-8.18861 -4.8629 3.52775
-8.18836 -5.41903 2.58194
-8.18763 -5.99996 0.252385
-4.07163 -5.88324 1.23903
-3.69767 -5.50289 2.39671
-2.2916 -9.98909 4.38624
0.763058 -9.98964 5.91226
-8.18602 -3.25812 5.0399
-8.1858 -2.19078 5.58967
-8.1865 -1.03964 5.9135
-8.1859 -3.36059 9.98442
-2.50194 -9.98367 9.9859
-6.33702 -9.98686 9.98328
-5.01604 -9.98199 9.98562
-1.29008 -9.98072 9.98705
-8.1853 -9.98545 5.53953
-8.18503 -8.24397 9.98405
-8.18418 -9.986 6.90757
-8.18019 -9.40747 9.98025
-8.17933 -9.9816 9.39165
-7.57807 -9.9833 9.97952
-8.18362 -9.98558 8.2157
-8.18619 -9.98595 4.08385
-3.73061 -9.98225 9.98602
-8.18315 -7.04457 9.98499
-8.18161 -5.85708 9.98726
-8.18408 -4.66471 9.98606
-8.18361 -2.04616 9.98565
-8.18275 0.499072 9.98717
-8.18657 0.21179 6.00234
-8.18781 1.42321 5.83798
5.10445 -3.28761 5.015
7.79453 -5.99969 0.113597
7.80103 -9.98825 -0.060336
7.68537 -9.98979 1.19026
11.7824 -9.98821 4.1143
11.7838 -9.98659 6.87743
11.7832 -9.98738 5.50356
7.6583 -9.98738 -1.26976
7.27408 -9.98748 -2.44203
6.88138 -5.09001 -3.18204
0.049692 -9.9833 -9.98648
3.04187 -9.98427 -9.98584
1.52904 -9.9838 -9.98646
2.30023 -9.98819 -5.97376
0.99913 -9.98725 -5.93711
6.26148 -4.46105 -4.02879
7.38049 -5.58369 -2.20306
7.69374 -5.89684 -1.12303
7.28824 -5.48351 2.43596
11.7852 -5.57811 2.1987
11.7836 -5.02746 3.25121
11.7845 -4.276 4.19787
11.7885 -3.29842 5.01213
7.65154 -5.85059 1.33206
7.30237 -9.9899 2.40282
6.62778 -9.98872 3.5449
5.66964 -9.98862 4.56689
5.91408 -4.12296 4.35892
6.68958 -4.88055 3.46837
-8.1814 2.92452 9.98656
-8.1818 1.71959 9.98718
-8.18322 4.20781 9.98631
-8.1829 5.54811 9.98651
-8.18252 8.1851 9.9872
-8.18772 9.98339 7.16801
-8.18939 9.98347 4.52418
-8.18905 9.98314 5.87416
-4.92819 9.98059 9.98949
-6.31359 9.98155 9.98887
-8.18549 9.98485 8.35125
-7.57072 9.9783 9.98521
-8.17905 9.98006 9.44283
-8.17682 9.38764 9.98536
-8.18279 6.88754 9.9862
-3.37823 4.72573 10.0108
-8.18291 -0.770373 9.98632
-8.18799 -4.17742 4.32891
-3.09286 -4.87894 3.47631
-2.29569 -4.08581 4.38223
-1.34296 -3.14602 5.09395
-1.35799 -9.99072 5.08416
-0.333797 -9.99 5.60434
-8.18631 -9.98589 0.984738
-8.1883 -5.82285 1.47976
-8.18687 -9.98631 2.48778
-3.66893 -9.98297 2.47188
-4.08404 -9.98569 1.21344
-4.20223 -6.00842 0.039947
-4.2016 -9.98694 -0.073271
-8.18517 -9.98542 -1.71692
-8.18629 -5.918 -1.01353
-3.7627 -5.56431 -2.26504
-2.42369 -4.21402 -4.25198
-8.18418 -7.01788 -9.98152
-8.1829 -8.19129 -9.98198
-8.18079 -5.89365 -9.98746
-8.1847 -9.9847 -8.12903
-8.17564 -9.98078 -9.38462
-7.4791 -9.98147 -9.98063
-8.18464 -9.98524 -5.40566
-8.18461 -9.98515 -6.78234
-8.17141 -9.38379 -9.98354
-8.18256 -4.67021 -9.98629
-8.18709 -1.45921 -5.81107
-2.12284 3.9451 -4.52567
-2.90591 4.71496 -3.70662
-8.18587 0.794221 -5.94212
-8.18556 -0.346438 -5.97569
-8.189 -4.33579 -4.17046
-8.18823 -3.49024 -4.88567
-8.18788 -2.51382 -5.44557
-3.19843 -4.99663 -3.31214
-8.18751 -5.60818 -2.15211
-5.99234 -9.98455 -9.98535
-1.40316 -9.98312 -9.9872
0.209717 -6.83463 -10.0098
-2.33021 -9.98647 -4.35431
11.7875 -4.25759 -4.23034
11.7867 -4.98374 -3.3564
11.7843 -9.98635 -2.51011
11.781 -9.98778 -6.78633
11.7822 -4.66083 -9.98731
6.75505 -4.94064 -10.0115
5.82751 -5.73458 -10.0124
8.52394 -1.97628 -10.0077
8.14128 -2.97019 -10.0094
7.55822 -3.96476 -10.0117
9.2133 -9.98723 -9.98451
11.7838 -8.25661 -9.98544
10.9012 -9.98526 -9.98158
11.7699 -9.41216 -9.98054
7.58215 -9.98659 -9.98454
11.787 -5.89517 -9.98396
11.7838 -7.07466 -9.98534
11.7684 -9.98367 -9.39182
11.7838 -9.98631 -8.12996
11.7821 -9.98775 -5.38919
11.7838 -9.98699 -3.92924
11.7878 -5.86099 -1.32142
11.7843 -9.98636 -1.12483
5.75595 -9.98775 -4.51426
4.79628 -6.33179 -10.0119
2.6798 -6.9636 -10.0094
-2.17813 -5.76005 -10.0111
-3.96579 -3.97167 -10.0107
-5.15383 -0.713612 -10.0108
-4.0615 -3.79294 -18.985
-5.17321 -0.218548 -18.9851
-5.08531 1.09537 -18.9839
-2.81407 5.22285 -18.9853
-5.16861 0.528828 -10.0106
-3.82897 4.153 -10.0134
-0.307085 6.67565 -10.0129
-2.20347 5.74247 -10.0112
-4.35057 9.98608 -9.9854
-5.45244 9.98594 -9.98566
-6.58659 9.98516 -9.98644
-8.18773 5.9907 -9.98575
-8.188 4.56011 -9.98499
-8.1885 3.08663 -9.98495
-8.18841 2.97979 -5.19551
-8.18646 5.82166 -1.41651
-3.53251 5.34768 -2.72638
-3.97111 5.77948 -1.61996
-4.17888 5.98798 -0.369931
-4.10097 9.98428 -1.13336
-4.20106 9.98276 0.091628
-4.05157 9.98248 1.31047
-1.88362 9.98631 -4.73999
0.212455 9.98659 -5.79544
-0.929564 9.98569 -5.34828
-3.29653 9.98519 -3.16103
-2.65411 9.98906 -4.02535
3.91998 9.98389 -5.60775
3.28343 9.98356 -9.98755
4.47175 9.98612 -9.98711
4.1897 6.57103 -10.0126
2.17318 9.98113 -9.98922
1.13088 9.98306 -9.98702
-8.18452 9.24727 -9.98142
-8.18828 9.98203 -3.41655
-8.18626 9.98367 -2.22016
-8.18639 5.90148 1.0027
-8.18769 5.00003 3.32868
-8.18882 2.47839 5.4771
-3.3151 5.12684 3.13989
-1.57963 9.98421 4.96132
-2.44607 9.98557 4.24062
0.235134 9.98599 5.79152
-0.592983 9.98063 9.98946
-2.55717 5.4865 10.0122
-4.07259 3.82034 10.0154
-4.62574 2.79417 10.0128
-4.68252 -2.5592 18.9812
1.34361 -6.96082 18.9878
-2.39884 -5.5625 18.9859
-3.35478 -4.69522 18.9845
-4.11569 -3.69144 18.9824
-2.90926 -5.17366 10.0116
-1.86904 -5.96208 10.0111
2.78348 -6.90449 18.9878
5.52661 -5.88165 18.9867
7.53717 -3.94099 18.9861
8.63606 -1.37578 18.9886
7.89557 3.4497 10.0121
8.42381 2.28662 10.0112
11.7833 -4.24823 9.98699
11.7854 -5.64848 9.98672
6.11365 -9.98683 9.98337
4.8244 -9.98514 9.98355
3.61681 -9.98252 9.98609
0.288793 -6.85264 10.0105
-0.820974 -6.51076 10.0095
-0.059118 -9.98191 9.98627
1.226 -9.98357 9.98576
2.00127 -9.98866 5.9997
3.29612 -9.98831 5.80685
4.54238 -9.9887 5.32917
8.67497 -9.98605 9.9821
9.9011 -9.98601 9.98343
11.7838 -7.00384 9.98706
11.7838 -9.98671 8.1973
11.7879 -2.13466 5.61049
11.7804 2.47746 9.98888
11.7819 3.91821 9.98858
11.7889 0.596466 5.95242
11.7873 4.12642 4.35147
7.74397 5.94378 0.769457
7.67655 9.98403 1.20137
3.45897 9.97964 9.98929
7.3913 9.98164 9.98807
6.14188 9.98027 9.98903
8.66718 9.9787 9.98966
11.7884 9.98602 7.7989
11.7863 9.98627 4.97243
11.7877 9.9854 3.61268
11.7885 9.98472 2.20652
11.7851 9.98711 -1.73557
7.80283 9.98475 0.109625
7.3771 9.98606 -2.198
5.03223 9.98403 -5.05361
5.62716 3.84214 -4.62745
6.32853 4.54451 -3.93679
11.7857 -3.41192 -4.94705
11.7799 -3.43156 -9.98736
8.79868 0.379649 -10.0104
8.77623 -0.288834 -18.9857
6.4747 -5.1698 -18.986
2.20111 -6.93777 -18.9832
3.39917 -6.77783 -18.9859
-8.19 9.98253 1.38579
-8.19028 9.98252 2.09144
-8.18955 9.98282 0.687268
-8.18893 9.98338 -0.004136
-8.1862 9.98445 -1.31262
-8.18781 9.98392 -0.670763
-8.18124 8.49288 9.98819
-8.18379 7.87732 9.98621
-5.2938 9.98085 9.98919
-5.9865 9.98133 9.98887
-6.64068 9.98177 9.98887
-8.18497 9.98518 8.62768
-8.18601 9.98452 8.07482
-8.18175 9.98278 9.17347
-8.17636 9.97734 9.71219
-7.87219 9.97646 9.98338
-7.26925 9.98015 9.98704
-8.17839 9.09415 9.98727
-8.17525 9.68113 9.98346
-8.18164 6.54654 9.9867
-8.18393 7.22854 9.98571
-8.18771 9.98233 -3.11166
-8.18886 9.98172 -3.72144
-8.18583 9.98419 -1.92685
-8.1867 9.98315 -2.51346
3.0139 9.98453 -5.88236
2.3731 9.98668 -5.98468
1.12285 9.98719 -5.97624
1.74275 9.98757 -6.01597
-2.08986 9.98685 -4.57897
-1.67738 9.98576 -4.90101
0.512676 9.9868 -5.87591
-0.087766 9.98639 -5.71498
-1.20035 9.98545 -5.20516
-0.658776 9.98594 -5.4914
3.62714 9.98367 -5.71947
4.21282 9.98411 -5.49603
4.76895 9.98418 -5.21896
5.29551 9.98388 -4.88826
