2.27299 12.8173 -0.19454
2.35366 12.8707 -0.195351
2.40812 12.951 -0.19657
2.1779 12.7996 -0.09713
2.27297 12.8184 -0.097273
2.35365 12.8718 -0.097678
2.40812 12.9522 -0.098288
1.5785 12.622 -2.12698
1.6784 12.622 -2.12698
1.7783 12.622 -2.12698
1.8782 12.622 -2.12698
1.9781 12.622 -2.12698
2.078 12.622 -2.12698
1.5785 12.6378 -2.03114
1.6784 12.6378 -2.03114
1.7783 12.6378 -2.03114
1.8782 12.6378 -2.03114
1.9781 12.6378 -2.03114
2.078 12.6378 -2.03114
1.5785 12.6529 -1.93518
1.6784 12.6529 -1.93518
1.7783 12.6529 -1.93518
1.8782 12.6529 -1.93518
1.9781 12.6529 -1.93518
2.078 12.6529 -1.93518
1.5785 12.6672 -1.83911
1.6784 12.6672 -1.83911
1.7783 12.6672 -1.83911
1.8782 12.6672 -1.83911
1.9781 12.6672 -1.83911
2.078 12.6672 -1.83911
1.5785 12.6808 -1.74293
1.6784 12.6808 -1.74293
1.7783 12.6808 -1.74293
1.8782 12.6808 -1.74293
1.9781 12.6808 -1.74293
2.078 12.6808 -1.74293
1.5785 12.6936 -1.64666
1.6784 12.6936 -1.64666
1.7783 12.6936 -1.64666
1.8782 12.6936 -1.64666
1.9781 12.6936 -1.64666
2.078 12.6936 -1.64666
1.5785 12.7058 -1.55029
1.6784 12.7058 -1.55029
1.7783 12.7058 -1.55029
1.8782 12.7058 -1.55029
1.9781 12.7058 -1.55029
2.078 12.7058 -1.55029
1.5785 12.7172 -1.45383
1.6784 12.7172 -1.45383
1.7783 12.7172 -1.45383
1.8782 12.7172 -1.45383
1.9781 12.7172 -1.45383
2.078 12.7172 -1.45383
1.5785 12.7278 -1.35728
1.6784 12.7278 -1.35728
1.7783 12.7278 -1.35728
1.8782 12.7278 -1.35728
1.9781 12.7278 -1.35728
2.078 12.7278 -1.35728
1.5785 12.7378 -1.26066
1.6784 12.7378 -1.26066
1.7783 12.7378 -1.26066
1.8782 12.7378 -1.26066
1.9781 12.7378 -1.26066
2.078 12.7378 -1.26066
1.5785 12.747 -1.16397
1.6784 12.747 -1.16397
1.7783 12.747 -1.16397
1.8782 12.747 -1.16397
1.9781 12.747 -1.16397
2.078 12.747 -1.16397
1.5785 12.7554 -1.0672
1.6784 12.7554 -1.0672
1.7783 12.7554 -1.0672
1.8782 12.7554 -1.0672
1.9781 12.7554 -1.0672
2.078 12.7554 -1.0672
1.5785 12.7632 -0.970382
1.6784 12.7632 -0.970382
1.7783 12.7632 -0.970382
1.8782 12.7632 -0.970382
1.9781 12.7632 -0.970382
2.078 12.7632 -0.970382
1.5785 12.7702 -0.873503
1.6784 12.7702 -0.873503
1.7783 12.7702 -0.873503
1.8782 12.7702 -0.873503
1.9781 12.7702 -0.873503
2.078 12.7702 -0.873503
1.5785 12.7764 -0.776574
1.6784 12.7764 -0.776573
1.7783 12.7764 -0.776574
1.8782 12.7764 -0.776573
1.9781 12.7764 -0.776574
2.078 12.7764 -0.776574
1.5785 12.7819 -0.6796
1.6784 12.7819 -0.6796
1.7783 12.7819 -0.6796
1.8782 12.7819 -0.6796
1.9781 12.7819 -0.6796
2.078 12.7819 -0.6796
1.5785 12.7867 -0.582587
1.6784 12.7867 -0.582587
1.7783 12.7867 -0.582587
1.8782 12.7867 -0.582587
1.9781 12.7867 -0.582587
2.078 12.7867 -0.582587
1.5785 12.7908 -0.48554
1.6784 12.7908 -0.48554
1.7783 12.7908 -0.48554
1.8782 12.7908 -0.48554
1.9781 12.7908 -0.48554
2.078 12.7908 -0.48554
1.5785 12.7941 -0.388466
1.6784 12.7941 -0.388466
1.7783 12.7941 -0.388466
1.8782 12.7941 -0.388466
1.9781 12.7941 -0.388466
2.078 12.7941 -0.388466
1.5785 12.7967 -0.291369
1.6784 12.7967 -0.291369
1.7783 12.7967 -0.291369
1.8782 12.7967 -0.291369
1.9781 12.7967 -0.291369
2.078 12.7967 -0.291369
1.5785 12.7985 -0.194255
1.6784 12.7985 -0.194255
1.7783 12.7985 -0.194255
1.8782 12.7985 -0.194255
1.9781 12.7985 -0.194255
2.078 12.7985 -0.194255
1.5785 12.7996 -0.09713
1.6784 12.7996 -0.09713
1.7783 12.7996 -0.09713
1.8782 12.7996 -0.09713
1.9781 12.7996 -0.09713
2.078 12.7996 -0.09713
1.3285 12.8686 -2.16852
1.34744 12.7744 -2.15266
1.40139 12.6946 -2.1392
1.48189 12.6412 -2.1302
1.3285 12.8847 -2.07081
1.34744 12.7904 -2.05566
1.40138 12.7105 -2.04281
1.48189 12.657 -2.03422
1.3285 12.9 -1.97298
1.34745 12.8056 -1.95854
1.40138 12.7256 -1.9463
1.48188 12.6721 -1.93812
1.3285 12.9146 -1.87503
1.34745 12.8201 -1.86131
1.40138 12.74 -1.84968
1.48188 12.6864 -1.8419
1.3285 12.9284 -1.77698
1.34745 12.8339 -1.76397
1.40137 12.7537 -1.75295
1.48187 12.7 -1.74558
1.3285 12.9416 -1.67882
1.34746 12.8469 -1.66653
1.40137 12.7666 -1.65612
1.48187 12.7129 -1.64916
1.3285 12.9539 -1.58056
1.34746 12.8591 -1.569
1.40137 12.7788 -1.5592
1.48186 12.7251 -1.55264
1.3285 12.9656 -1.48222
1.34746 12.8707 -1.47137
1.40137 12.7903 -1.46218
1.48186 12.7365 -1.45603
1.3285 12.9764 -1.38379
1.34746 12.8814 -1.37366
1.40136 12.801 -1.36509
1.48185 12.7472 -1.35934
1.3285 12.9866 -1.28528
1.34747 12.8915 -1.27588
1.40136 12.811 -1.26791
1.48185 12.7571 -1.26258
1.3285 12.9959 -1.1867
1.34747 12.9008 -1.17801
1.40136 12.8202 -1.17066
1.48184 12.7663 -1.16573
1.3285 13.0046 -1.08805
1.34747 12.9094 -1.08008
1.40136 12.8288 -1.07334
1.48184 12.7748 -1.06883
1.3285 13.0124 -0.989335
1.34747 12.9172 -0.982092
1.40135 12.8365 -0.975961
1.48184 12.7825 -0.971856
1.3285 13.0196 -0.890563
1.34748 12.9243 -0.884043
1.40135 12.8436 -0.878525
1.48183 12.7896 -0.87483
1.3285 13.026 -0.791741
1.34748 12.9306 -0.785944
1.40135 12.8499 -0.781039
1.48183 12.7958 -0.777753
1.3285 13.0316 -0.692873
1.34748 12.9362 -0.6878
1.40135 12.8554 -0.683508
1.48182 12.8014 -0.680632
1.3285 13.0365 -0.593965
1.34748 12.941 -0.589616
1.40135 12.8603 -0.585937
1.48182 12.8062 -0.583472
1.3285 13.0406 -0.495023
1.34749 12.9451 -0.491398
1.40134 12.8643 -0.488332
1.48181 12.8102 -0.486278
1.3285 13.044 -0.396053
1.34749 12.9485 -0.393152
1.40134 12.8677 -0.3907
1.48181 12.8135 -0.389056
1.3285 13.0466 -0.29706
1.34749 12.9511 -0.294884
1.40134 12.8703 -0.293045
1.4818 12.8161 -0.291812
1.3285 13.0485 -0.198049
1.3475 12.9529 -0.196599
1.40134 12.8721 -0.195372
1.4818 12.818 -0.19455
1.3285 13.0496 -0.099027
1.3475 12.954 -0.098302
1.40134 12.8732 -0.097689
1.48179 12.8191 -0.097278
1.3285 13.6846 -0.103826
1.3285 13.6834 -0.207645
1.3285 13.6815 -0.311453
1.3285 13.6787 -0.415242
1.3285 13.6752 -0.519008
1.3285 13.6708 -0.622744
1.3285 13.6657 -0.726444
1.3285 13.6598 -0.830102
1.3285 13.6531 -0.933713
1.3285 13.6456 -1.03727
1.3285 13.6374 -1.14077
1.3285 13.6283 -1.2442
1.3285 13.6185 -1.34756
1.3285 13.6079 -1.45084
1.3285 13.5965 -1.55422
1.3285 13.5843 -1.65733
1.3285 13.5713 -1.76034
1.3285 13.5576 -1.86326
1.3285 13.543 -1.96606
1.3285 13.5277 -2.06875
1.3285 13.5117 -2.17133
1.3285 13.4948 -2.27377
1.3285 13.5788 -0.103036
1.3285 13.5776 -0.206066
1.3285 13.5757 -0.309084
1.3285 13.5729 -0.412085
1.3285 13.5694 -0.515061
1.3285 13.5651 -0.618008
1.3285 13.56 -0.720919
1.3285 13.5542 -0.823789
1.3285 13.5475 -0.926612
1.3285 13.5401 -1.02938
1.3285 13.5319 -1.13209
1.3285 13.5229 -1.23477
1.3285 13.5132 -1.33739
1.3285 13.5026 -1.43995
1.3285 13.4913 -1.54252
1.3285 13.4792 -1.64484
1.3285 13.4663 -1.74707
1.3285 13.4527 -1.8492
1.3285 13.4382 -1.95122
1.3285 13.4231 -2.05313
1.3285 13.4071 -2.15493
1.3285 13.3904 -2.25659
1.3285 13.4729 -0.102248
1.3285 13.4718 -0.20449
1.3285 13.4698 -0.30672
1.3285 13.4671 -0.408933
1.3285 13.4636 -0.511122
1.3285 13.4594 -0.613281
1.3285 13.4543 -0.715405
1.3285 13.4485 -0.817488
1.3285 13.4419 -0.919523
1.3285 13.4346 -1.02151
1.3285 13.4264 -1.12343
1.3285 13.4175 -1.22536
1.3285 13.4078 -1.32724
1.3285 13.3973 -1.42904
1.3285 13.3861 -1.53079
1.3285 13.3741 -1.63234
1.3285 13.3613 -1.73378
1.3285 13.3478 -1.83513
1.3285 13.3335 -1.93637
1.3285 13.3184 -2.0375
1.3285 13.3025 -2.13852
1.3285 13.2859 -2.23941
1.3285 13.3671 -0.101461
1.3285 13.366 -0.202917
1.3285 13.364 -0.30436
1.3285 13.3614 -0.405786
1.3285 13.3579 -0.507189
1.3285 13.3537 -0.608562
1.3285 13.3486 -0.709901
1.3285 13.3429 -0.811197
1.3285 13.3363 -0.912448
1.3285 13.329 -1.01365
1.3285 13.3209 -1.11479
1.3285 13.3121 -1.21597
1.3285 13.3025 -1.31708
1.3285 13.2921 -1.41811
1.3285 13.2809 -1.51905
1.3285 13.269 -1.61981
1.3285 13.2563 -1.72048
1.3285 13.2429 -1.82105
1.3285 13.2287 -1.92151
1.3285 13.2137 -2.02186
1.3285 13.198 -2.1221
1.3285 13.1815 -2.22221
1.3285 13.2613 -0.100676
1.3285 13.2601 -0.201346
1.3285 13.2582 -0.302005
1.3285 13.2556 -0.402646
1.3285 13.2521 -0.503263
1.3285 13.2479 -0.603852
1.3285 13.243 -0.704406
1.3285 13.2372 -0.804919
1.3285 13.2307 -0.905386
1.3285 13.2235 -1.0058
1.3285 13.2155 -1.10616
1.3285 13.2067 -1.20661
1.3285 13.1971 -1.30693
1.3285 13.1868 -1.40717
1.3285 13.1757 -1.5073
1.3285 13.1639 -1.60728
1.3285 13.1513 -1.70717
1.3285 13.138 -1.80695
1.3285 13.1239 -1.90664
1.3285 13.109 -2.00621
1.3285 13.0934 -2.10567
1.3285 13.0771 -2.20501
1.3285 13.1554 -0.099892
1.3285 13.1543 -0.199778
1.3285 13.1524 -0.299653
1.3285 13.1498 -0.399511
1.3285 13.1464 -0.499345
1.3285 13.1422 -0.599151
1.3285 13.1373 -0.698922
1.3285 13.1316 -0.798653
1.3285 13.1251 -0.898337
1.3285 13.1179 -0.997971
1.3285 13.11 -1.09755
1.3285 13.1012 -1.19728
1.3285 13.0918 -1.29678
1.3285 13.0815 -1.3962
1.3285 13.0706 -1.49552
1.3285 13.0588 -1.59473
1.3285 13.0463 -1.69384
1.3285 13.0331 -1.79285
1.3285 13.0191 -1.89176
1.3285 13.0044 -1.99056
1.3285 12.9889 -2.08924
1.3285 12.9726 -2.1878
0.3285 14.6846 -0.111434
0.3285 14.6833 -0.222862
0.3285 14.6812 -0.334278
0.3285 14.6782 -0.445673
0.3285 14.6744 -0.557044
0.3285 14.6698 -0.668382
0.3285 14.6643 -0.779682
0.3285 14.658 -0.890936
0.3285 14.6508 -1.00214
0.3285 14.6427 -1.11329
0.3285 14.6339 -1.22437
0.3285 14.6242 -1.33538
0.3285 14.6136 -1.44631
0.3285 14.6022 -1.55716
0.3285 14.59 -1.66793
0.3285 14.5769 -1.77859
0.3285 14.563 -1.88915
0.3285 14.5482 -1.99961
0.3285 14.5326 -2.10995
0.3285 14.5162 -2.22016
0.3285 14.4989 -2.33025
0.3285 14.4808 -2.44021
0.426517 14.6798 -0.111398
0.426517 14.6785 -0.222789
0.426517 14.6764 -0.334168
0.426517 14.6734 -0.445527
0.426517 14.6696 -0.556861
0.426517 14.665 -0.668163
0.426517 14.6595 -0.779426
0.426517 14.6531 -0.890644
0.426517 14.646 -1.00181
0.426517 14.6379 -1.11292
0.426517 14.6291 -1.22397
0.426517 14.6194 -1.33494
0.426517 14.6088 -1.44584
0.426517 14.5974 -1.55665
0.426517 14.5852 -1.66738
0.426517 14.5721 -1.77801
0.426517 14.5582 -1.88853
0.426517 14.5435 -1.99895
0.426517 14.5279 -2.10925
0.426517 14.5114 -2.21943
0.426517 14.4942 -2.32949
0.426517 14.4761 -2.43941
0.52359 14.6654 -0.111289
0.523591 14.6641 -0.222571
0.52359 14.662 -0.33384
0.52359 14.659 -0.44509
0.52359 14.6552 -0.556315
0.52359 14.6506 -0.667507
0.52359 14.6451 -0.778661
0.52359 14.6388 -0.889771
0.52359 14.6316 -1.00083
0.52359 14.6236 -1.11183
0.52359 14.6147 -1.22276
0.52359 14.605 -1.33363
0.52359 14.5945 -1.44442
0.52359 14.5831 -1.55513
0.52359 14.5709 -1.66574
0.52359 14.5578 -1.77626
0.52359 14.5439 -1.88668
0.52359 14.5292 -1.99699
0.52359 14.5136 -2.10718
0.52359 14.4972 -2.21726
0.52359 14.48 -2.3272
0.52359 14.4619 -2.43702
0.618785 14.6415 -0.111108
0.618785 14.6403 -0.222209
0.618785 14.6382 -0.333297
0.618785 14.6352 -0.444367
0.618785 14.6314 -0.55541
0.618785 14.6268 -0.666422
0.618785 14.6213 -0.777395
0.618785 14.615 -0.888324
0.618785 14.6078 -0.999201
0.618784 14.5998 -1.11002
0.618785 14.591 -1.22078
0.618784 14.5813 -1.33146
0.618785 14.5708 -1.44207
0.618784 14.5594 -1.5526
0.618785 14.5472 -1.66303
0.618785 14.5342 -1.77338
0.618785 14.5203 -1.88361
0.618784 14.5056 -1.99374
0.618784 14.49 -2.10376
0.618784 14.4736 -2.21365
0.618785 14.4564 -2.32342
0.618785 14.4384 -2.43305
0.711183 14.6085 -0.110857
0.711183 14.6072 -0.221707
0.711183 14.6051 -0.332545
0.711183 14.6021 -0.443363
0.711183 14.5984 -0.554156
0.711183 14.5937 -0.664917
0.711183 14.5883 -0.77564
0.711183 14.582 -0.886318
0.711183 14.5748 -0.996945
0.711183 14.5668 -1.10751
0.711183 14.558 -1.21802
0.711184 14.5484 -1.32846
0.711183 14.5379 -1.43882
0.711183 14.5265 -1.54909
0.711183 14.5143 -1.65928
0.711184 14.5013 -1.76937
0.711183 14.4875 -1.87936
0.711183 14.4728 -1.98924
0.711183 14.4573 -2.09901
0.711183 14.441 -2.20866
0.711183 14.4238 -2.31817
0.711183 14.4058 -2.42756
0.799897 14.5665 -0.110538
0.799897 14.5652 -0.22107
0.799897 14.5632 -0.33159
0.799897 14.5602 -0.44209
0.799896 14.5564 -0.552565
0.799897 14.5518 -0.663008
0.799897 14.5464 -0.773412
0.799897 14.5401 -0.883773
0.799897 14.533 -0.994082
0.799897 14.525 -1.10433
0.799897 14.5162 -1.21452
0.799897 14.5066 -1.32464
0.799897 14.4961 -1.43468
0.799897 14.4848 -1.54464
0.799897 14.4727 -1.65451
0.799897 14.4597 -1.76429
0.799897 14.4459 -1.87396
0.799897 14.4312 -1.98353
0.799897 14.4158 -2.09298
0.799897 14.3995 -2.20231
0.799897 14.3823 -2.31152
0.799897 14.3644 -2.42059
0.88407 14.5161 -0.110156
0.88407 14.5148 -0.220305
0.88407 14.5127 -0.330441
0.88407 14.5098 -0.440559
0.88407 14.506 -0.550651
0.88407 14.5014 -0.660711
0.88407 14.496 -0.770734
0.88407 14.4897 -0.880712
0.88407 14.4826 -0.990639
0.88407 14.4747 -1.10051
0.88407 14.4659 -1.21032
0.88407 14.4563 -1.32005
0.88407 14.4459 -1.42971
0.88407 14.4346 -1.53929
0.88407 14.4225 -1.64878
0.88407 14.4096 -1.75818
0.88407 14.3959 -1.86747
0.88407 14.3813 -1.97666
0.88407 14.3659 -2.08573
0.88407 14.3496 -2.19468
0.88407 14.3325 -2.30351
0.88407 14.3146 -2.4122
0.962894 14.4576 -0.109712
0.962894 14.4564 -0.219418
0.962894 14.4543 -0.329111
0.962894 14.4514 -0.438785
0.962894 14.4476 -0.548433
0.962894 14.443 -0.65805
0.962894 14.4376 -0.76763
0.962894 14.4314 -0.877165
0.962894 14.4243 -0.98665
0.962894 14.4164 -1.09608
0.962894 14.4077 -1.20544
0.962894 14.3981 -1.31474
0.962894 14.3877 -1.42396
0.962894 14.3765 -1.53309
0.962894 14.3645 -1.64214
0.962894 14.3516 -1.7511
0.962894 14.3379 -1.85995
0.962894 14.3233 -1.9687
0.962894 14.308 -2.07733
0.962894 14.2918 -2.18585
0.962894 14.2748 -2.29423
0.962894 14.257 -2.40249
1.03561 14.3917 -0.109212
1.03561 14.3904 -0.218417
1.03561 14.3884 -0.32761
1.03561 14.3855 -0.436785
1.03561 14.3818 -0.545933
1.03561 14.3772 -0.655051
1.03561 14.3718 -0.764131
1.03561 14.3656 -0.873167
1.03561 14.3586 -0.982152
1.03561 14.3507 -1.09108
1.03561 14.342 -1.19995
1.03561 14.3325 -1.30874
1.03561 14.3221 -1.41747
1.03561 14.311 -1.52611
1.03561 14.299 -1.63466
1.03561 14.2862 -1.74312
1.03561 14.2725 -1.85147
1.03561 14.2581 -1.95973
1.03561 14.2428 -2.06786
1.03561 14.2267 -2.17588
1.03561 14.2098 -2.28378
1.03561 14.192 -2.39154
1.10151 14.319 -0.10866
1.10151 14.3177 -0.217314
1.10151 14.3157 -0.325955
1.10151 14.3128 -0.434578
1.10151 14.3091 -0.543175
1.10151 14.3046 -0.651742
1.10151 14.2992 -0.76027
1.10151 14.293 -0.868755
1.10151 14.286 -0.97719
1.10151 14.2782 -1.08557
1.10151 14.2695 -1.19388
1.10151 14.2601 -1.30213
1.10151 14.2498 -1.41031
1.10151 14.2387 -1.5184
1.10151 14.2267 -1.6264
1.10151 14.214 -1.73431
1.10151 14.2004 -1.84212
1.10151 14.186 -1.94982
1.10151 14.1708 -2.05742
1.10151 14.1548 -2.16489
1.10151 14.138 -2.27224
1.10151 14.1203 -2.37946
1.15997 14.2402 -0.108062
1.15997 14.2389 -0.216118
1.15997 14.2369 -0.324161
1.15997 14.234 -0.432186
1.15997 14.2303 -0.540185
1.15997 14.2258 -0.648154
1.15997 14.2205 -0.756085
1.15997 14.2143 -0.863973
1.15997 14.2074 -0.971811
1.15997 14.1996 -1.07959
1.15997 14.191 -1.18731
1.15997 14.1816 -1.29496
1.15997 14.1713 -1.40254
1.15997 14.1603 -1.51004
1.15997 14.1484 -1.61745
1.15997 14.1357 -1.72476
1.15997 14.1222 -1.83198
1.15997 14.1079 -1.93909
1.15997 14.0928 -2.04609
1.15997 14.0769 -2.15297
1.15997 14.0601 -2.25973
1.15997 14.0426 -2.36636
1.21042 14.156 -0.107423
1.21042 14.1548 -0.21484
1.21042 14.1527 -0.322245
1.21042 14.1499 -0.429631
1.21042 14.1462 -0.536992
1.21042 14.1417 -0.644323
1.21042 14.1364 -0.751616
1.21042 14.1303 -0.858866
1.21042 14.1234 -0.966067
1.21042 14.1157 -1.07321
1.21042 14.1071 -1.18029
1.21042 14.0977 -1.28731
1.21042 14.0876 -1.39425
1.21042 14.0766 -1.50111
1.21042 14.0648 -1.60789
1.21042 14.0522 -1.71457
1.21042 14.0388 -1.82115
1.21042 14.0245 -1.92763
1.21042 14.0095 -2.034
1.21042 13.9937 -2.14025
1.21042 13.977 -2.24637
1.21042 13.9596 -2.35237
1.25238 14.0673 -0.10675
1.25238 14.0661 -0.213494
1.25238 14.064 -0.320226
1.25238 14.0612 -0.426939
1.25238 14.0576 -0.533627
1.25238 14.0531 -0.640285
1.25238 14.0478 -0.746906
1.25238 14.0418 -0.853484
1.25238 14.0349 -0.960013
1.25238 14.0272 -1.06649
1.25238 14.0187 -1.1729
1.25238 14.0094 -1.27924
1.25238 13.9993 -1.38551
1.25238 13.9884 -1.4917
1.25238 13.9767 -1.59781
1.25238 13.9641 -1.70382
1.25238 13.9508 -1.80974
1.25238 13.9367 -1.91555
1.25238 13.9217 -2.02125
1.25238 13.906 -2.12683
1.25238 13.8894 -2.2323
1.25238 13.8721 -2.33763
1.28544 13.9749 -0.106049
1.28544 13.9737 -0.212092
1.28544 13.9717 -0.318122
1.28544 13.9689 -0.424134
1.28544 13.9652 -0.530122
1.28544 13.9608 -0.636079
1.28544 13.9556 -0.742
1.28544 13.9495 -0.847878
1.28544 13.9427 -0.953707
1.28544 13.9351 -1.05948
1.28544 13.9266 -1.16519
1.28544 13.9174 -1.27084
1.28544 13.9073 -1.37641
1.28544 13.8965 -1.48191
1.28544 13.8848 -1.58732
1.28544 13.8724 -1.69263
1.28544 13.8592 -1.79785
1.28544 13.8451 -1.90297
1.28544 13.8303 -2.00797
1.28544 13.8146 -2.11286
1.28544 13.7982 -2.21763
1.28544 13.781 -2.32227
1.30929 13.8797 -0.105327
1.30929 13.8785 -0.210647
1.30929 13.8765 -0.315955
1.30929 13.8737 -0.421245
1.30929 13.8701 -0.526511
1.30929 13.8657 -0.631747
1.30929 13.8605 -0.736946
1.30929 13.8545 -0.842103
1.30929 13.8477 -0.947211
1.30929 13.8401 -1.05227
1.30929 13.8318 -1.15726
1.30929 13.8226 -1.26218
1.30929 13.8126 -1.36704
1.30929 13.8018 -1.47181
1.30929 13.7903 -1.5765
1.30929 13.7779 -1.6811
1.30929 13.7648 -1.78561
1.30929 13.7508 -1.89001
1.30929 13.7361 -1.9943
1.30929 13.7205 -2.09847
1.30929 13.7042 -2.20253
1.30929 13.6871 -2.30646
1.32369 13.7826 -0.10459
1.32369 13.7814 -0.209174
1.32369 13.7795 -0.313746
1.32369 13.7767 -0.418299
1.32369 13.7731 -0.522829
1.32369 13.7687 -0.627329
1.32369 13.7636 -0.731792
1.32369 13.7576 -0.836213
1.32369 13.7509 -0.940587
1.32369 13.7434 -1.04491
1.32369 13.735 -1.14916
1.32369 13.7259 -1.25336
1.32369 13.716 -1.35748
1.32369 13.7053 -1.46152
1.32369 13.6938 -1.56548
1.32369 13.6816 -1.66935
1.32369 13.6685 -1.77312
1.32369 13.6546 -1.87679
1.32369 13.64 -1.98035
1.32369 13.6246 -2.0838
1.32369 13.6084 -2.18712
1.32369 13.5914 -2.29033
0.089452 14.4784 -2.45454
0.172405 14.4792 -2.44994
0.237054 14.4822 -2.43237
0.075771 14.4935 -2.36367
0.143892 14.4931 -2.36611
0.191911 14.4927 -2.36901
0.255191 14.4934 -2.3642
0.194664 14.502 -2.31128
0.135234 14.5059 -2.28676
0.069569 14.5077 -2.27474
0.260494 14.5078 -2.27466
0.196163 14.5147 -2.22987
0.132614 14.5191 -2.20094
0.067124 14.5216 -2.18428
0.262094 14.5229 -2.17609
0.196781 14.5286 -2.13776
0.131807 14.5327 -2.10964
0.066217 14.5352 -2.09179
0.262586 14.5379 -2.07356
0.197004 14.5425 -2.04063
0.131548 14.5461 -2.015
0.065889 14.5485 -1.99785
0.262738 14.5524 -1.96921
0.197077 14.5561 -1.94111
0.131458 14.5591 -1.91859
0.06577 14.5612 -1.90303
0.262784 14.5662 -1.86399
0.197099 14.5692 -1.84045
0.131425 14.5716 -1.82125
0.065727 14.5733 -1.80773
0.262798 14.5794 -1.75833
0.197104 14.5816 -1.73923
0.131413 14.5835 -1.72345
0.065711 14.5848 -1.71217
0.262803 14.5917 -1.65243
0.197106 14.5934 -1.63771
0.131407 14.5948 -1.6254
0.065705 14.5958 -1.61644
0.262804 14.6033 -1.54637
0.197106 14.6045 -1.53602
0.131405 14.6054 -1.5272
0.065704 14.6061 -1.52061
0.262804 14.6142 -1.4402
0.065704 14.6157 -1.4247
0.197106 14.6148 -1.43422
0.131405 14.6153 -1.4289
0.065704 14.6248 -1.32871
0.131405 14.6246 -1.33052
0.197106 14.6244 -1.33233
0.262804 14.6243 -1.33395
0.065701 14.6332 -1.23275
0.131404 14.6332 -1.2321
0.197106 14.6334 -1.23038
0.262804 14.6336 -1.22763
0.065702 14.641 -1.13661
0.131405 14.6412 -1.13359
0.197106 14.6416 -1.12836
0.262804 14.6421 -1.12123
0.065704 14.6481 -1.04046
0.131405 14.6485 -1.03504
0.197106 14.6491 -1.02628
0.262804 14.6499 -1.01478
0.065704 14.6546 -0.944272
0.131405 14.6551 -0.936443
0.197106 14.6559 -0.924155
0.262804 14.6569 -0.908266
0.065704 14.6605 -0.848046
0.131405 14.6611 -0.837803
0.197106 14.662 -0.821985
0.262804 14.6631 -0.801709
0.065704 14.6657 -0.751783
0.131405 14.6664 -0.739125
0.197106 14.6673 -0.719774
0.262798 14.6685 -0.695115
0.065708 14.6704 -0.655488
0.131423 14.671 -0.640414
0.197104 14.672 -0.617578
0.262774 14.6732 -0.588562
0.065805 14.6743 -0.559165
0.131562 14.675 -0.541835
0.197116 14.6759 -0.51579
0.26268 14.6771 -0.482412
0.066251 14.6777 -0.463083
0.132021 14.6783 -0.444303
0.197066 14.6791 -0.415811
0.067376 14.6804 -0.368261
0.262274 14.6801 -0.377739
0.13307 14.6808 -0.35003
0.196608 14.6815 -0.320869
0.069942 14.6824 -0.275946
0.260734 14.6824 -0.276979
0.135777 14.6827 -0.262035
0.195135 14.6831 -0.237317
0.076079 14.6838 -0.186024
0.144308 14.6839 -0.181743
0.255399 14.6838 -0.185395
0.192286 14.6839 -0.178574
0.237229 14.6845 -0.11584
0.089588 14.6847 -0.094983
0.172578 14.6847 -0.098347
2.88384 15.347 -1.64573
2.93122 15.356 -1.55959
2.83956 15.3373 -1.73347
2.79886 15.327 -1.8229
2.76197 15.3159 -1.91397
2.72903 15.304 -2.00664
2.70013 15.2914 -2.10054
2.6752 15.2781 -2.19555
2.65408 15.264 -2.2915
2.63658 15.2491 -2.38818
2.62248 15.2336 -2.48536
2.61139 15.2174 -2.58281
2.74898 15.3371 -1.73575
2.79092 15.3468 -1.64763
2.71018 15.3267 -1.8253
2.83538 15.3559 -1.56074
2.67485 15.3156 -1.91631
2.64315 15.3037 -2.00874
2.61508 15.2911 -2.10242
2.59046 15.2778 -2.19717
2.56896 15.2638 -2.29283
2.55023 15.249 -2.38919
2.53386 15.2335 -2.48603
2.51941 15.2173 -2.58313
2.65665 15.3369 -1.73717
2.61958 15.3265 -1.82684
2.69653 15.3467 -1.64876
2.5857 15.3154 -1.91785
2.73863 15.3558 -1.56138
2.55515 15.3035 -2.01017
2.52785 15.291 -2.1037
2.50349 15.2777 -2.19829
2.48162 15.2636 -2.29376
2.46175 15.2489 -2.3899
2.44344 15.2334 -2.48651
2.42627 15.2173 -2.58337
2.56321 15.3368 -1.73805
2.52773 15.3264 -1.82783
2.60128 15.3466 -1.64944
2.49521 15.3153 -1.91886
2.46574 15.3034 -2.01113
2.64137 15.3558 -1.56175
2.43916 15.2908 -2.10458
2.41504 15.2775 -2.19906
2.39281 15.2635 -2.29439
2.37191 15.2488 -2.3904
2.3519 15.2333 -2.48685
2.33246 15.2172 -2.58354
2.46909 15.3368 -1.73862
2.4351 15.3263 -1.82847
2.50552 15.3466 -1.64986
2.40386 15.3152 -1.91953
2.37542 15.3033 -2.01178
2.54385 15.3558 -1.56198
2.34952 15.2908 -2.10518
2.32562 15.2775 -2.19959
2.30306 15.2634 -2.29484
2.28122 15.2487 -2.39075
2.25968 15.2333 -2.4871
2.23827 15.2172 -2.58367
2.37458 15.3367 -1.739
2.34199 15.3263 -1.82891
2.31197 15.3151 -1.91999
2.40947 15.3465 -1.65014
2.28452 15.3033 -2.01224
2.44617 15.3558 -1.56213
2.25928 15.2907 -2.10561
2.23561 15.2774 -2.19998
2.21273 15.2634 -2.29517
2.19 15.2487 -2.39101
2.16704 15.2333 -2.48727
2.14384 15.2172 -2.58376
2.27984 15.3367 -1.73927
2.24861 15.3262 -1.82923
2.21978 15.3151 -1.92034
2.31327 15.3465 -1.65034
2.19329 15.3032 -2.01258
2.3484 15.3557 -1.56224
2.16869 15.2907 -2.10593
2.14523 15.2774 -2.20026
2.12205 15.2634 -2.29542
2.09846 15.2486 -2.3912
2.07417 15.2332 -2.48741
2.04928 15.2172 -2.58383
2.18498 15.3367 -1.73949
2.15507 15.3262 -1.82949
2.21697 15.3465 -1.6505
2.12741 15.315 -1.92061
2.2506 15.3557 -1.56232
2.10186 15.3032 -2.01285
2.0779 15.2906 -2.10619
2.05464 15.2773 -2.2005
2.03116 15.2633 -2.29562
2.00674 15.2486 -2.39136
1.98115 15.2332 -2.48752
1.95464 15.2172 -2.58389
2.09005 15.3366 -1.73968
2.06144 15.3262 -1.82971
2.12063 15.3465 -1.65064
2.03493 15.315 -1.92084
2.15277 15.3557 -1.5624
2.01033 15.3032 -2.01308
1.98698 15.2906 -2.10641
1.96393 15.2773 -2.2007
1.94016 15.2633 -2.29579
1.91492 15.2486 -2.39149
1.88805 15.2332 -2.48761
1.99509 15.3366 -1.73985
1.96777 15.3261 -1.8299
2.02426 15.3465 -1.65077
1.94241 15.315 -1.92105
1.85996 15.2172 -2.58394
2.05493 15.3557 -1.56246
1.91873 15.3031 -2.01329
1.896 15.2906 -2.10661
1.87316 15.2773 -2.20088
1.84909 15.2633 -2.29594
1.82304 15.2486 -2.39161
1.79491 15.2332 -2.4877
1.90011 15.3366 -1.74001
1.87407 15.3261 -1.83009
1.92789 15.3465 -1.65089
1.84985 15.315 -1.92125
1.95709 15.3557 -1.56253
1.8271 15.3031 -2.01349
1.76525 15.2172 -2.58398
1.80499 15.2905 -2.1068
1.78235 15.2773 -2.20105
1.75798 15.2633 -2.29609
1.73113 15.2486 -2.39173
1.70175 15.2332 -2.48778
1.80511 15.3366 -1.74017
1.78037 15.3261 -1.83027
1.8315 15.3464 -1.65101
1.75728 15.3149 -1.92144
1.85924 15.3557 -1.5626
1.73545 15.3031 -2.01369
1.71396 15.2905 -2.10698
1.67052 15.2172 -2.58402
1.69152 15.2772 -2.20121
1.66686 15.2632 -2.29623
1.6392 15.2486 -2.39184
1.60856 15.2332 -2.48785
1.71012 15.3366 -1.74032
1.73512 15.3464 -1.65112
1.68665 15.3261 -1.83045
1.6647 15.3149 -1.92163
1.76139 15.3557 -1.56266
1.64379 15.3031 -2.01388
1.62291 15.2905 -2.10716
1.60068 15.2772 -2.20138
1.57579 15.2172 -2.58406
1.57573 15.2632 -2.29637
1.54727 15.2485 -2.39195
1.51538 15.2332 -2.48793
1.61512 15.3366 -1.74048
1.63873 15.3464 -1.65124
1.59294 15.3261 -1.83063
1.66354 15.3557 -1.56272
1.57212 15.3149 -1.92182
1.55213 15.303 -2.01406
1.53187 15.2905 -2.10734
1.50983 15.2772 -2.20154
1.48105 15.2171 -2.5841
1.48459 15.2632 -2.2965
1.45532 15.2485 -2.39206
1.52012 15.3365 -1.74063
1.54235 15.3464 -1.65136
1.49922 15.326 -1.83081
1.56569 15.3557 -1.56279
1.42219 15.2332 -2.488
1.47954 15.3149 -1.922
1.46047 15.303 -2.01425
1.44082 15.2904 -2.10752
1.41899 15.2772 -2.2017
1.38632 15.2171 -2.58414
1.39346 15.2632 -2.29664
1.36338 15.2485 -2.39216
1.44596 15.3464 -1.65147
1.42512 15.3365 -1.74079
1.4055 15.326 -1.83098
1.46784 15.3557 -1.56285
1.38696 15.3148 -1.92219
1.36881 15.303 -2.01444
1.32899 15.2331 -2.48807
1.34977 15.2904 -2.10769
1.32814 15.2771 -2.20185
1.30231 15.2632 -2.29677
1.29158 15.2171 -2.58417
1.27144 15.2485 -2.39227
1.34957 15.3464 -1.65159
1.33012 15.3365 -1.74094
1.36998 15.3557 -1.56291
1.31178 15.326 -1.83116
1.29437 15.3148 -1.92238
1.27714 15.303 -2.01462
1.2358 15.2331 -2.48815
1.25872 15.2904 -2.10787
1.23729 15.2771 -2.20201
1.21117 15.2631 -2.29691
1.19684 15.2171 -2.58421
1.17949 15.2485 -2.39237
1.25318 15.3464 -1.6517
1.23512 15.3365 -1.74109
1.27213 15.3557 -1.56298
1.21806 15.326 -1.83134
1.20179 15.3148 -1.92256
1.18548 15.3029 -2.01481
1.16767 15.2904 -2.10805
1.1426 15.2331 -2.48822
1.14644 15.2771 -2.20217
1.12003 15.2631 -2.29704
1.1021 15.2171 -2.58425
1.08754 15.2485 -2.39248
1.15679 15.3464 -1.65182
1.17428 15.3556 -1.56304
1.14012 15.3365 -1.74125
1.12435 15.3259 -1.83151
1.1092 15.3148 -1.92275
1.09382 15.3029 -2.015
1.07662 15.2903 -2.10822
1.04941 15.2331 -2.48829
1.05559 15.2771 -2.20233
1.02889 15.2631 -2.29718
1.00735 15.2171 -2.58428
0.995597 15.2484 -2.39259
1.06041 15.3463 -1.65194
1.07643 15.3556 -1.5631
1.04512 15.3364 -1.7414
1.03063 15.3259 -1.83169
1.01662 15.3147 -1.92294
1.00215 15.3029 -2.01518
0.985567 15.2903 -2.1084
0.956214 15.2331 -2.48836
0.964741 15.2771 -2.20249
0.937749 15.2631 -2.29732
0.912615 15.2171 -2.58432
0.903652 15.2484 -2.39269
0.978581 15.3556 -1.56317
0.964016 15.3463 -1.65206
0.950116 15.3364 -1.74156
0.936908 15.3259 -1.83188
0.924034 15.3147 -1.92314
0.910488 15.3029 -2.01538
0.894516 15.2903 -2.10859
0.873892 15.277 -2.20267
0.863022 15.2331 -2.48844
0.846609 15.2631 -2.29747
0.817877 15.2171 -2.58436
0.811717 15.2484 -2.39281
0.880731 15.3556 -1.56324
0.867628 15.3463 -1.65219
0.855115 15.3364 -1.74174
0.843189 15.3259 -1.8321
0.831449 15.3147 -1.92339
0.818823 15.3028 -2.01565
0.803464 15.2903 -2.10886
0.783048 15.277 -2.20293
0.769848 15.2331 -2.48851
0.755498 15.263 -2.29769
0.723157 15.2171 -2.58439
0.78288 15.3556 -1.56333
0.771239 15.3463 -1.65238
0.760113 15.3364 -1.74203
0.719846 15.2484 -2.39297
0.749469 15.3258 -1.83246
0.738863 15.3146 -1.92382
0.727158 15.3028 -2.01613
0.712422 15.2902 -2.10938
0.692254 15.2769 -2.20342
0.676763 15.2331 -2.48859
0.664525 15.263 -2.29809
0.685028 15.3556 -1.56351
0.674849 15.3463 -1.65275
0.665109 15.3363 -1.74259
0.655747 15.3258 -1.8332
0.646275 15.3145 -1.92472
0.628507 15.2171 -2.58442
0.628218 15.2483 -2.3932
0.635501 15.3026 -2.01717
0.621442 15.29 -2.11047
0.601667 15.2768 -2.20444
0.583973 15.2331 -2.48867
0.573994 15.2628 -2.29886
0.587176 15.3556 -1.56388
0.578457 15.3462 -1.65351
0.570104 15.3362 -1.74375
0.562023 15.3256 -1.83475
0.553693 15.3143 -1.9266
0.537283 15.2483 -2.39358
0.543901 15.3023 -2.0193
0.534072 15.2171 -2.5844
0.530682 15.2897 -2.11268
0.511634 15.2765 -2.20644
0.491968 15.2331 -2.48867
0.484523 15.2626 -2.30027
0.489322 15.3555 -1.56459
0.482064 15.346 -1.65497
0.475096 15.3359 -1.74594
0.4683 15.3252 -1.83762
0.461147 15.3139 -1.93008
0.447933 15.2482 -2.39413
0.452466 15.3018 -2.02319
0.440189 15.2171 -2.58427
0.44041 15.2892 -2.11666
0.422706 15.276 -2.20999
0.401757 15.2331 -2.48841
0.397089 15.2623 -2.30274
0.391467 15.3554 -1.56581
0.385668 15.3458 -1.65741
0.380086 15.3355 -1.74955
0.374591 15.3247 -1.84232
0.368687 15.3131 -1.9357
0.361686 15.2481 -2.39489
0.361332 15.301 -2.02945
0.350925 15.2883 -2.12309
0.347584 15.2172 -2.58375
0.335487 15.2751 -2.21586
0.315264 15.2333 -2.48735
0.312878 15.2616 -2.30695
0.293611 15.3552 -1.56763
0.289268 15.3454 -1.66098
0.280776 15.2479 -2.39599
0.285076 15.3349 -1.75478
0.280908 15.3238 -1.84907
0.27635 15.3121 -1.94374
0.270578 15.2998 -2.03846
0.262376 15.287 -2.13259
0.257798 15.2175 -2.58208
0.250289 15.2738 -2.22504
0.236078 15.2338 -2.48431
0.232746 15.2605 -2.31427
0.207756 15.2475 -2.39846
0.195749 15.3549 -1.56999
0.192861 15.3449 -1.66558
0.190062 15.3342 -1.76148
0.187252 15.3228 -1.85767
0.184147 15.3108 -1.954
0.18017 15.2982 -2.05019
0.174601 15.2851 -2.14552
0.174338 15.2184 -2.577
0.170829 15.2349 -2.47721
0.166682 15.2718 -2.23874
0.155983 15.2585 -2.32751
0.143051 15.2462 -2.40695
0.130965 15.2369 -2.465
0.09788 15.3547 -1.57272
0.096439 15.3443 -1.67089
0.106062 15.221 -2.56136
0.095035 15.3333 -1.76918
0.093607 15.3216 -1.86757
0.092007 15.3093 -1.96595
0.089964 15.2964 -2.06412
0.08716 15.2829 -2.16164
0.083369 15.269 -2.25767
0.078807 15.255 -2.3506
0.078214 15.2294 -2.51095
0.075019 15.2414 -2.43722
2.70517 14.0998 -2.38652
2.71197 14.1168 -2.29008
2.72328 14.1337 -2.19405
2.73908 14.1505 -2.09863
2.75934 14.1672 -2.00404
2.78402 14.1837 -1.91047
2.81306 14.2 -1.81812
2.8464 14.2161 -1.72719
2.88396 14.2318 -1.63788
2.92568 14.2472 -1.55036
2.97145 14.2623 -1.46484
3.02119 14.277 -1.3815
3.07478 14.2913 -1.3005
3.13211 14.3051 -1.22203
3.19306 14.3185 -1.14624
3.25751 14.3314 -1.07332
3.3253 14.3437 -1.00339
3.3963 14.3554 -0.936633
3.47035 14.3666 -0.873171
3.5473 14.3772 -0.813145
3.62699 14.3872 -0.756683
3.70923 14.3965 -0.703905
3.79386 14.4051 -0.654925
3.88071 14.4131 -0.609846
3.96957 14.4203 -0.568765
4.06026 14.4268 -0.531769
4.15259 14.4326 -0.498937
4.24637 14.4377 -0.47034
4.34138 14.4419 -0.446039
4.43743 14.4455 -0.426085
4.53432 14.4482 -0.410521
4.63183 14.4502 -0.39938
4.72976 14.4514 -0.392685
2.70517 14.0062 -2.37002
2.71197 14.0232 -2.27358
2.72328 14.0402 -2.17755
2.73908 14.057 -2.08214
2.75934 14.0737 -1.98755
2.78402 14.0902 -1.89398
2.81306 14.1065 -1.80163
2.8464 14.1225 -1.7107
2.88396 14.1383 -1.62138
2.92568 14.1537 -1.53387
2.97145 14.1688 -1.44835
3.02119 14.1835 -1.365
3.07478 14.1977 -1.284
3.13211 14.2116 -1.20553
3.19306 14.2249 -1.12975
3.25751 14.2378 -1.05682
3.3253 14.2501 -0.9869
3.3963 14.2619 -0.920138
3.47035 14.2731 -0.856676
3.5473 14.2837 -0.79665
3.62699 14.2936 -0.740188
3.70923 14.3029 -0.68741
3.79386 14.3116 -0.63843
3.88071 14.3195 -0.593351
3.96957 14.3268 -0.55227
4.06026 14.3333 -0.515274
4.15259 14.3391 -0.482442
4.24637 14.3441 -0.453845
4.34138 14.3484 -0.429544
4.43743 14.3519 -0.40959
4.53432 14.3547 -0.394025
4.63183 14.3566 -0.382884
4.72976 14.3578 -0.37619
2.70517 13.9127 -2.35353
2.71197 13.9297 -2.25709
2.72328 13.9466 -2.16106
2.73908 13.9635 -2.06564
2.75934 13.9801 -1.97105
2.78402 13.9966 -1.87748
2.81306 14.0129 -1.78513
2.8464 14.0289 -1.6942
2.88396 14.0447 -1.60489
2.92568 14.0601 -1.51737
2.97145 14.0752 -1.43185
3.02119 14.0899 -1.34851
3.07478 14.1042 -1.26751
3.13211 14.118 -1.18904
3.19306 14.1314 -1.11325
3.25751 14.1442 -1.04032
3.3253 14.1566 -0.970404
3.3963 14.1684 -0.903642
3.47035 14.1795 -0.840181
3.5473 14.1901 -0.780155
3.62699 14.2001 -0.723692
3.70923 14.2094 -0.670915
3.79386 14.218 -0.621934
3.88071 14.226 -0.576855
3.96957 14.2332 -0.535774
4.06026 14.2397 -0.498778
4.15259 14.2455 -0.465947
4.24637 14.2506 -0.43735
4.34138 14.2549 -0.413048
4.43743 14.2584 -0.393094
4.53432 14.2611 -0.37753
4.63183 14.2631 -0.366389
4.72976 14.2643 -0.359695
2.70517 13.8191 -2.33703
2.71197 13.8362 -2.24059
2.72328 13.8531 -2.14456
2.73908 13.8699 -2.04915
2.75934 13.8866 -1.95455
2.78402 13.9031 -1.86098
2.81306 13.9194 -1.76864
2.8464 13.9354 -1.67771
2.88396 13.9511 -1.58839
2.92568 13.9666 -1.50088
2.97145 13.9817 -1.41536
3.02119 13.9964 -1.33201
3.07478 14.0106 -1.25101
3.13211 14.0245 -1.17254
3.19306 14.0378 -1.09676
3.25751 14.0507 -1.02383
3.3253 14.063 -0.953909
3.3963 14.0748 -0.887147
3.47035 14.086 -0.823685
3.5473 14.0966 -0.763659
3.62699 14.1065 -0.707197
3.70923 14.1158 -0.654419
3.79386 14.1245 -0.605439
3.88071 14.1324 -0.56036
3.96957 14.1397 -0.519279
4.06026 14.1462 -0.482283
4.15259 14.152 -0.449451
4.24637 14.157 -0.420854
4.34138 14.1613 -0.396553
4.43743 14.1648 -0.376599
4.53432 14.1676 -0.361035
4.63183 14.1695 -0.349894
4.72976 14.1707 -0.343199
2.70517 13.7256 -2.32054
2.71197 13.7426 -2.2241
2.72328 13.7595 -2.12807
2.73908 13.7764 -2.03265
2.75934 13.793 -1.93806
2.78402 13.8095 -1.84449
2.81306 13.8258 -1.75214
2.8464 13.8419 -1.66121
2.88396 13.8576 -1.5719
2.92568 13.873 -1.48438
2.97145 13.8881 -1.39886
3.02119 13.9028 -1.31551
3.07478 13.9171 -1.23452
3.13211 13.9309 -1.15604
3.19306 13.9443 -1.08026
3.25751 13.9572 -1.00733
3.3253 13.9695 -0.937414
3.3963 13.9812 -0.870652
3.47035 13.9924 -0.80719
3.5473 14.003 -0.747164
3.62699 14.013 -0.690702
3.70923 14.0223 -0.637924
3.79386 14.0309 -0.588944
3.88071 14.0389 -0.543865
3.96957 14.0461 -0.502783
4.06026 14.0526 -0.465788
4.15259 14.0584 -0.432956
4.24637 14.0635 -0.404359
4.34138 14.0677 -0.380058
4.43743 14.0713 -0.360104
4.53432 14.074 -0.344539
4.63183 14.076 -0.333398
4.72976 14.0772 -0.326704
2.70517 13.632 -2.30404
2.71197 13.649 -2.2076
2.72328 13.666 -2.11157
2.73908 13.6828 -2.01616
2.75934 13.6995 -1.92156
2.78402 13.716 -1.82799
2.81306 13.7323 -1.73565
2.8464 13.7483 -1.64472
2.88396 13.764 -1.5554
2.92568 13.7795 -1.46789
2.97145 13.7946 -1.38237
3.02119 13.8093 -1.29902
3.07478 13.8235 -1.21802
3.13211 13.8374 -1.13955
3.19306 13.8507 -1.06377
3.25751 13.8636 -0.990838
3.3253 13.8759 -0.920918
3.3963 13.8877 -0.854156
3.47035 13.8989 -0.790695
3.5473 13.9095 -0.730668
3.62699 13.9194 -0.674206
3.70923 13.9287 -0.621429
3.79386 13.9374 -0.572448
3.88071 13.9453 -0.527369
3.96957 13.9526 -0.486288
4.06026 13.9591 -0.449292
4.15259 13.9649 -0.416461
4.24637 13.9699 -0.387864
4.34138 13.9742 -0.363562
4.43743 13.9777 -0.343608
4.53432 13.9805 -0.328044
4.63183 13.9824 -0.316903
4.72976 13.9836 -0.310209
2.70517 13.5385 -2.28755
2.71197 13.5555 -2.1911
2.72328 13.5724 -2.09507
2.73908 13.5893 -1.99966
2.75934 13.6059 -1.90507
2.78402 13.6224 -1.8115
2.81306 13.6387 -1.71915
2.8464 13.6547 -1.62822
2.88396 13.6705 -1.53891
2.92568 13.6859 -1.45139
2.97145 13.701 -1.36587
3.02119 13.7157 -1.28252
3.07478 13.73 -1.20153
3.13211 13.7438 -1.12305
3.19306 13.7572 -1.04727
3.25751 13.7701 -0.974343
3.3253 13.7824 -0.904423
3.3963 13.7942 -0.837661
3.47035 13.8053 -0.774199
3.5473 13.8159 -0.714173
3.62699 13.8259 -0.657711
3.70923 13.8352 -0.604934
3.79386 13.8438 -0.555953
3.88071 13.8518 -0.510874
3.96957 13.859 -0.469793
4.06026 13.8655 -0.432797
4.15259 13.8713 -0.399966
4.24637 13.8764 -0.371368
4.34138 13.8806 -0.347067
4.43743 13.8842 -0.327113
4.53432 13.8869 -0.311549
4.63183 13.8889 -0.300408
4.72976 13.8901 -0.293713
2.70517 13.4449 -2.27105
2.71197 13.462 -2.17461
2.72328 13.4789 -2.07858
2.73908 13.4957 -1.98317
2.75934 13.5124 -1.88857
2.78402 13.5289 -1.795
2.81306 13.5452 -1.70265
2.8464 13.5612 -1.61172
2.88396 13.577 -1.52241
2.92568 13.5924 -1.4349
2.97145 13.6075 -1.34938
3.02119 13.6222 -1.26603
3.07478 13.6364 -1.18503
3.13211 13.6503 -1.10656
3.19306 13.6636 -1.03078
3.25751 13.6765 -0.957847
3.3253 13.6888 -0.887928
3.3963 13.7006 -0.821166
3.47035 13.7118 -0.757704
3.5473 13.7224 -0.697678
3.62699 13.7323 -0.641216
3.70923 13.7416 -0.588438
3.79386 13.7503 -0.539458
3.88071 13.7582 -0.494379
3.96957 13.7655 -0.453298
4.06026 13.772 -0.416302
4.15259 13.7778 -0.38347
4.24637 13.7828 -0.354873
4.34138 13.7871 -0.330572
4.43743 13.7906 -0.310618
4.53432 13.7934 -0.295054
4.63183 13.7953 -0.283912
4.72976 13.7965 -0.277218
2.70517 13.3514 -2.25456
2.71197 13.3684 -2.15811
2.72328 13.3853 -2.06208
2.73908 13.4022 -1.96667
2.75934 13.4188 -1.87208
2.78402 13.4353 -1.77851
2.81306 13.4516 -1.68616
2.8464 13.4677 -1.59523
2.88396 13.4834 -1.50591
2.92568 13.4988 -1.4184
2.97145 13.5139 -1.33288
3.02119 13.5286 -1.24953
3.07478 13.5429 -1.16854
3.13211 13.5567 -1.09006
3.19306 13.5701 -1.01428
3.25751 13.5829 -0.941352
3.3253 13.5953 -0.871432
3.3963 13.607 -0.80467
3.47035 13.6182 -0.741208
3.5473 13.6288 -0.681182
3.62699 13.6388 -0.624721
3.70923 13.6481 -0.571943
3.79386 13.6567 -0.522962
3.88071 13.6647 -0.477883
3.96957 13.6719 -0.436802
4.06026 13.6784 -0.399806
4.15259 13.6842 -0.366975
4.24637 13.6893 -0.338378
4.34138 13.6936 -0.314077
4.43743 13.6971 -0.294122
4.53432 13.6998 -0.278558
4.63183 13.7018 -0.267417
4.72976 13.703 -0.260723
4.75205 14.3675 -0.868327
4.74747 14.3843 -0.773204
4.74292 14.401 -0.678078
4.7384 14.4178 -0.582951
4.73393 14.4346 -0.487822
4.67635 14.3666 -0.873506
4.66718 14.3833 -0.778704
4.65809 14.4 -0.683895
4.64909 14.4167 -0.589078
4.64016 14.4334 -0.494253
4.60092 14.3651 -0.882099
4.58719 14.3817 -0.787841
4.57359 14.3983 -0.693565
4.56012 14.4149 -0.59927
4.54677 14.4316 -0.504957
4.52601 14.3629 -0.894186
4.50675 14.3794 -0.800868
4.48811 14.3959 -0.707425
4.47016 14.4124 -0.613848
4.45294 14.4289 -0.520135
4.45178 14.3602 -0.909605
4.42821 14.3765 -0.817262
4.40514 14.3928 -0.724792
4.3826 14.4091 -0.632186
4.36059 14.4255 -0.539443
4.37851 14.3569 -0.928334
4.35038 14.373 -0.837252
4.32284 14.3891 -0.745983
4.2959 14.4052 -0.654529
4.26954 14.4213 -0.562894
4.30603 14.353 -0.950393
4.27349 14.3688 -0.860761
4.24161 14.3847 -0.770886
4.21039 14.4006 -0.680771
4.17982 14.4165 -0.590419
4.09163 14.4109 -0.621976
4.12651 14.3953 -0.710822
4.16199 14.3796 -0.799414
4.19806 14.3641 -0.887756
4.2347 14.3485 -0.975853
4.00459 14.4046 -0.657706
4.04348 14.3892 -0.744917
4.08312 14.3739 -0.831772
4.1235 14.3587 -0.918271
4.16462 14.3435 -1.00441
3.91966 14.3977 -0.697219
3.96263 14.3826 -0.78257
4.00634 14.3676 -0.867527
4.05078 14.3527 -0.952083
4.09596 14.3379 -1.03623
3.83659 14.39 -0.740582
3.8835 14.3753 -0.823899
3.93118 14.3607 -0.906754
3.97962 14.3462 -0.98914
4.02884 14.3317 -1.07105
3.75566 14.3817 -0.787693
3.80646 14.3674 -0.868779
3.85803 14.3532 -0.949343
3.91037 14.3391 -1.02939
3.96344 14.3251 -1.10892
3.67719 14.3728 -0.83837
3.73176 14.3589 -0.917038
3.78707 14.3451 -0.995158
3.84312 14.3315 -1.07272
3.89989 14.3179 -1.14973
3.60111 14.3632 -0.892572
3.65939 14.3498 -0.968626
3.71834 14.3365 -1.04412
3.77799 14.3233 -1.11903
3.83831 14.3102 -1.19337
3.52763 14.3531 -0.950249
3.5894 14.3401 -1.02357
3.65187 14.3273 -1.09627
3.71502 14.3146 -1.16834
3.77886 14.302 -1.23977
3.45693 14.3423 -1.01121
3.5221 14.3299 -1.08163
3.58794 14.3176 -1.15138
3.65446 14.3054 -1.22045
3.72165 14.2933 -1.28884
3.38926 14.331 -1.07523
3.45773 14.3191 -1.14256
3.52682 14.3074 -1.2092
3.59652 14.2958 -1.27516
3.6668 14.2842 -1.34047
3.3247 14.3192 -1.14223
3.39631 14.3079 -1.20631
3.46847 14.2967 -1.26972
3.54118 14.2857 -1.33247
3.61444 14.2747 -1.39454
3.26329 14.3069 -1.21216
3.33787 14.2962 -1.27287
3.41296 14.2856 -1.3329
3.48856 14.2751 -1.39226
3.56466 14.2648 -1.45092
3.20521 14.294 -1.28488
3.28256 14.2839 -1.34211
3.36041 14.274 -1.39863
3.43874 14.2641 -1.45443
3.51756 14.2544 -1.50949
3.15069 14.2808 -1.36006
3.2307 14.2713 -1.41362
3.31114 14.262 -1.4665
3.392 14.2528 -1.51869
3.47326 14.2437 -1.57021
3.09975 14.2671 -1.43759
3.18224 14.2583 -1.48738
3.26508 14.2497 -1.53653
3.34829 14.2411 -1.58501
3.43186 14.2327 -1.63282
3.05255 14.253 -1.51737
3.13733 14.245 -1.56324
3.22241 14.237 -1.60852
3.30779 14.2291 -1.65319
3.39347 14.2213 -1.69723
3.00905 14.2386 -1.59923
3.09595 14.2312 -1.6411
3.1831 14.224 -1.6824
3.2705 14.2168 -1.72312
3.35809 14.2097 -1.7634
2.9695 14.2238 -1.68303
3.05829 14.2172 -1.72084
3.14731 14.2106 -1.7581
3.23652 14.2041 -1.79484
3.32594 14.1977 -1.83108
3.29693 14.1856 -1.90011
3.20596 14.1912 -1.86782
3.11514 14.197 -1.83509
3.02446 14.2029 -1.80193
2.93392 14.2088 -1.76834
3.27126 14.1732 -1.97019
3.1789 14.1782 -1.94203
3.08664 14.1832 -1.91347
2.9945 14.1883 -1.88454
2.90245 14.1935 -1.85527
3.24891 14.1606 -2.04159
3.15535 14.1649 -2.01747
3.06186 14.1692 -1.99309
2.96843 14.1735 -1.96844
2.87506 14.1779 -1.94353
3.22972 14.1478 -2.11431
3.1352 14.1514 -2.09415
3.04071 14.1549 -2.07387
2.94623 14.1585 -2.05348
2.85179 14.1621 -2.03295
3.21413 14.1349 -2.18736
3.11877 14.1377 -2.1715
3.02343 14.1405 -2.15556
2.92809 14.1433 -2.13953
2.83278 14.1462 -2.12341
3.20198 14.1219 -2.26098
3.106 14.124 -2.24928
3.01002 14.126 -2.23762
2.91403 14.1281 -2.22601
2.81804 14.1301 -2.21445
3.19328 14.1088 -2.33521
3.09686 14.1101 -2.32786
3.00043 14.1114 -2.32059
2.90399 14.1127 -2.31339
2.80755 14.1139 -2.30626
3.18809 14.0957 -2.40974
3.09142 14.0962 -2.4068
2.99476 14.0967 -2.40396
2.89808 14.0972 -2.40123
2.80141 14.0977 -2.3986
4.73129 15.2476 -0.628047
4.73596 15.2307 -0.723956
4.7406 15.2138 -0.819867
4.7452 15.1968 -0.91578
4.74977 15.1799 -1.0117
4.63473 15.2464 -0.634835
4.64409 15.2295 -0.730415
4.65339 15.2127 -0.826
4.66263 15.1958 -0.921591
4.67182 15.179 -1.01719
4.53883 15.2444 -0.646146
4.5528 15.2276 -0.741176
4.56669 15.2109 -0.836216
4.58049 15.1941 -0.931268
4.59422 15.1774 -1.02633
4.44378 15.2416 -0.661881
4.4625 15.225 -0.75612
4.48097 15.2084 -0.850403
4.4992 15.1917 -0.944727
4.51721 15.1751 -1.03909
4.34942 15.2381 -0.682082
4.37269 15.2216 -0.775337
4.39568 15.2052 -0.868652
4.4184 15.1887 -0.962022
4.44089 15.1722 -1.05544
4.25602 15.2337 -0.706736
4.28387 15.2175 -0.79879
4.31135 15.2012 -0.890937
4.33847 15.185 -0.983175
4.36521 15.1687 -1.0755
4.29075 15.1646 -1.09887
4.25982 15.1806 -1.00785
4.22846 15.1966 -0.916945
4.19662 15.2127 -0.826184
4.1642 15.2286 -0.735597
4.2176 15.1598 -1.1258
4.18242 15.1756 -1.03628
4.1467 15.1914 -0.946934
4.11043 15.2071 -0.857778
4.07361 15.2228 -0.768813
4.14576 15.1545 -1.1561
4.10649 15.17 -1.06826
4.06653 15.1854 -0.980693
4.02594 15.2008 -0.89338
3.98477 15.2162 -0.806295
4.07542 15.1486 -1.18973
4.03214 15.1637 -1.10375
3.98816 15.1788 -1.01809
3.94347 15.1939 -0.932737
3.89806 15.2088 -0.847725
4.00684 15.142 -1.22663
3.95947 15.1568 -1.14278
3.9114 15.1715 -1.05929
3.86262 15.1862 -0.976142
3.81313 15.2008 -0.893356
3.94014 15.135 -1.2667
3.8889 15.1494 -1.1851
3.83689 15.1637 -1.10391
3.78414 15.1779 -1.02315
3.73064 15.1921 -0.942806
3.87543 15.1274 -1.30984
3.82043 15.1413 -1.23066
3.76463 15.1552 -1.15196
3.70804 15.169 -1.07376
3.65067 15.1827 -0.996054
3.81291 15.1192 -1.35596
3.75419 15.1327 -1.27941
3.69466 15.1461 -1.20341
3.63434 15.1594 -1.12795
3.57323 15.1727 -1.05305
3.75267 15.1106 -1.40498
3.69029 15.1236 -1.33128
3.62715 15.1365 -1.25816
3.56326 15.1493 -1.18562
3.4986 15.162 -1.11365
3.69484 15.1015 -1.45676
3.62902 15.1139 -1.38604
3.56244 15.1263 -1.31594
3.49512 15.1385 -1.24647
3.42705 15.1507 -1.17764
3.63957 15.0919 -1.5112
3.57052 15.1038 -1.44354
3.50069 15.1156 -1.37659
3.43009 15.1273 -1.31035
3.35872 15.1388 -1.24484
3.58701 15.0818 -1.56815
3.51474 15.0932 -1.50383
3.44175 15.1044 -1.44024
3.36803 15.1154 -1.3774
3.2936 15.1264 -1.31531
3.53726 15.0714 -1.62751
3.46192 15.0821 -1.56671
3.3859 15.0927 -1.50665
3.30923 15.1031 -1.44734
3.2319 15.1135 -1.38877
3.49046 15.0605 -1.68915
3.41228 15.0706 -1.6319
3.33347 15.0805 -1.57545
3.25402 15.0904 -1.51978
3.17395 15.1 -1.46491
3.44668 15.0492 -1.75291
3.36575 15.0587 -1.69951
3.28425 15.0679 -1.64686
3.2022 15.0771 -1.59498
3.11961 15.0861 -1.54385
3.40601 15.0377 -1.81863
3.32264 15.0464 -1.76898
3.23872 15.055 -1.72017
3.15426 15.0635 -1.6722
3.06926 15.0718 -1.62508
3.36861 15.0257 -1.8862
3.28286 15.0338 -1.84064
3.19662 15.0417 -1.79589
3.10992 15.0494 -1.75195
3.02276 15.057 -1.70882
3.33447 15.0135 -1.9554
3.24656 15.0208 -1.91401
3.15825 15.028 -1.87338
3.06955 15.035 -1.83354
2.98043 15.0419 -1.79452
3.30375 15.0011 -2.02617
3.21382 15.0076 -1.9892
3.12357 15.014 -1.95291
3.03302 15.0203 -1.9173
2.94219 15.0264 -1.88232
3.27637 14.9883 -2.09836
3.18478 14.9941 -2.06558
3.09292 14.9998 -2.03351
3.00078 15.0053 -2.00215
2.90837 15.0107 -1.9715
2.87888 14.9947 -2.06226
2.97264 14.9901 -2.08863
3.06619 14.9853 -2.11566
3.15952 14.9804 -2.14334
3.25263 14.9754 -2.17168
2.85375 14.9784 -2.1545
2.94865 14.9745 -2.17658
3.04341 14.9705 -2.19919
3.13803 14.9665 -2.2223
3.23251 14.9623 -2.24592
2.83331 14.9621 -2.24689
2.92918 14.9591 -2.26444
3.02487 14.9558 -2.28287
3.12045 14.9525 -2.30181
3.21594 14.949 -2.32114
2.81709 14.9454 -2.34156
2.91359 14.943 -2.35527
3.01006 14.9406 -2.3691
3.10652 14.9381 -2.38304
3.20296 14.9356 -2.39711
2.8056 14.9288 -2.43623
2.90265 14.9271 -2.44545
2.99969 14.9255 -2.45473
3.09673 14.9238 -2.46409
3.19376 14.9222 -2.47351
2.79869 14.912 -2.53132
2.89608 14.9112 -2.53602
2.99346 14.9103 -2.54074
3.09084 14.9095 -2.54549
3.18822 14.9087 -2.55026
4.75152 15.0784 -0.99371
4.75277 14.9768 -0.975745
4.75322 14.8753 -0.957819
4.75306 14.7737 -0.939918
4.75277 14.6722 -0.922023
4.75254 14.5706 -0.904126
4.75221 14.4691 -0.886234
4.67754 14.9759 -0.980847
4.6786 14.8744 -0.962845
4.67508 15.0775 -0.998979
4.67849 14.7728 -0.944947
4.67803 14.6713 -0.927081
4.67743 14.5697 -0.909228
4.67683 14.4681 -0.891375
4.60392 14.8729 -0.971264
4.60225 14.9744 -0.989398
4.60393 14.7714 -0.953355
4.59876 15.0759 -1.00779
4.60327 14.6698 -0.935537
4.60248 14.5682 -0.917738
4.60164 14.4666 -0.899945
4.52914 14.8708 -0.983143
4.52935 14.7693 -0.965199
4.52694 14.9723 -1.00145
4.52864 14.6677 -0.94742
4.52267 15.0737 -1.02015
4.52778 14.5661 -0.92967
4.52693 14.4645 -0.911919
4.45444 14.8681 -0.998537
4.45487 14.7666 -0.980531
4.45185 14.9696 -1.01704
4.45427 14.665 -0.962761
4.45352 14.5634 -0.945027
4.44701 15.0709 -1.03608
4.45261 14.4618 -0.92733
4.38019 14.8648 -1.01743
4.38081 14.7633 -0.999354
4.37727 14.9662 -1.03616
4.38035 14.6617 -0.981575
4.372 15.0675 -1.05556
4.37969 14.5601 -0.963852
4.37903 14.4585 -0.946127
4.30683 14.8608 -1.03975
4.3037 14.9622 -1.0587
4.30762 14.7593 -1.02158
4.30725 14.6578 -1.0038
4.29807 15.0634 -1.07848
4.30671 14.5562 -0.986069
4.30617 14.4546 -0.96834
4.23479 14.8563 -1.06536
4.23143 14.9577 -1.08455
4.23569 14.7548 -1.04711
4.23543 14.6532 -1.0293
4.22541 15.0588 -1.10478
4.23503 14.5517 -1.01154
4.23465 14.4501 -0.993781
4.16427 14.8512 -1.09415
4.16063 14.9525 -1.11364
4.16528 14.7498 -1.0758
4.16511 14.6482 -1.05796
4.15416 15.0536 -1.1344
4.16471 14.5466 -1.04023
4.16444 14.445 -1.02244
4.09529 14.8456 -1.12608
4.09644 14.7442 -1.1076
4.09132 14.9468 -1.14594
4.09631 14.6426 -1.08976
4.09605 14.541 -1.07198
4.08436 15.0478 -1.16731
4.0957 14.4394 -1.05425
4.0278 14.8394 -1.16118
4.02914 14.738 -1.14253
4.02354 14.9406 -1.18143
4.02913 14.6364 -1.12463
4.02877 14.5349 -1.10692
4.01622 15.0414 -1.20342
4.02839 14.4333 -1.08922
3.96186 14.8327 -1.19944
3.96337 14.7313 -1.18061
3.95738 14.9338 -1.2201
3.96342 14.6297 -1.16267
3.96322 14.5282 -1.14488
3.94983 15.0345 -1.24268
3.96295 14.4266 -1.12714
3.89764 14.8254 -1.2408
3.89931 14.724 -1.22176
3.89301 14.9264 -1.26185
3.8995 14.6225 -1.20372
3.89928 14.5209 -1.18597
3.88534 15.027 -1.28502
3.89914 14.4193 -1.16815
3.83538 14.8176 -1.28512
3.83716 14.7163 -1.26588
3.83069 14.9185 -1.30655
3.83752 14.6147 -1.24771
3.83752 14.5132 -1.2298
3.82319 15.0191 -1.33013
3.83753 14.4116 -1.21188
3.77537 14.8093 -1.3322
3.77717 14.708 -1.31281
3.77134 14.9102 -1.35344
3.77754 14.6065 -1.2946
3.76458 15.0108 -1.37697
3.77765 14.5049 -1.2766
3.77786 14.4034 -1.25853
3.71652 14.9019 -1.40093
3.71843 14.8006 -1.38129
3.71238 15.0028 -1.4226
3.71961 14.6993 -1.36232
3.72005 14.5978 -1.34402
3.72031 14.4962 -1.32588
3.72055 14.3947 -1.30775
3.67488 14.9965 -1.45791
3.66738 14.8937 -1.44734
3.66495 14.7917 -1.43183
3.66477 14.6901 -1.4141
3.66507 14.5886 -1.3959
3.66537 14.4871 -1.3777
3.66566 14.3856 -1.3595
3.62668 14.9879 -1.50677
3.6176 14.8847 -1.49854
3.61338 14.7823 -1.48519
3.61241 14.6806 -1.46834
3.61264 14.579 -1.45018
3.61294 14.4775 -1.43195
3.61323 14.376 -1.41372
