0.0102891 15.3508 -1.47324
0.0822392 15.3586 -1.33545
0.00668589 15.3754 -1.27801
0.0734896 15.4086 -1.27102
-0.0257237 15.4448 -0.690138
-0.0578285 15.4804 -0.59282
-0.0353001 15.4617 -0.493327
-0.0371662 15.4664 -0.394726
0.0227358 15.4099 -0.294869
0.0983932 15.4183 -0.590401
0.0988611 15.423 -0.295163
0.375469 15.452 -0.011193
0.460178 15.5091 0.0307776
0.546405 15.545 0.0482404
0.742252 15.4984 -0.992366
0.652789 15.5048 -0.0163633
0.735787 15.5551 0.00889985
0.821081 15.5939 0.0190371
0.926461 15.5779 -0.093311
1.00822 15.6277 -0.0179698
1.00499 15.6353 -0.0934926
1.0967 15.6613 -0.0242672
1.08627 15.6832 -0.0936329
1.26793 15.7111 -0.78764
1.35709 15.7811 -0.0456913
1.43419 15.8369 -0.0413379
1.50618 15.9247 -0.825848
1.47251 15.9446 0.0240656
1.56768 15.9741 -0.0104687
1.60513 16.0743 0.0425188
1.72912 16.0767 -0.0574518
1.83272 16.2405 -0.0939692
3.26789 15.406 -1.13694
3.21726 15.4032 -1.30717
3.12344 15.361 -1.36309
3.07175 15.3554 -1.46751
2.98083 15.3479 -1.4724
1.78951 15.448 -1.18965
0.19871 15.3735 -1.47568
0.131078 15.33 -1.44032
2.17435 12.6367 -2.20043
1.9781 12.6218 -2.21126
1.7783 12.5865 -2.24057
1.6784 12.6033 -2.22423
2.29315 12.7407 -2.19909
1.97501 12.6931 -2.21997
1.68945 12.7133 -2.18361
3.21154 14.0536 -2.50414
3.15968 14.189 -2.47417
3.21013 14.7905 -2.6266
3.21748 14.2817 -2.54263
3.19099 14.6913 -2.59523
3.08679 14.7939 -2.60689
3.08442 14.5952 -2.54591
2.9914 14.8902 -2.6193
2.993 14.1154 -2.46036
2.99141 14.802 -2.58449
2.31658 12.9689 -2.2712
1.30166 13.0555 -2.32929
2.8939 14.903 -2.63393
2.8939 14.8067 -2.56211
2.89548 14.2893 -2.44939
2.7996 14.1092 -2.45551
2.60788 13.4271 -2.3724
2.73797 15.2321 -2.72632
2.71985 14.9945 -2.65862
2.7964 14.9072 -2.64357
2.41227 13.2984 -2.32183
1.52521 13.2628 -2.30784
2.60251 15.1773 -2.64717
2.50612 15.183 -2.65532
2.40973 15.2147 -2.7005
2.31542 13.2827 -2.3107
1.28865 13.366 -2.39725
2.50612 15.1125 -2.62432
1.31326 13.4747 -2.38757
1.53133 13.4778 -2.35564
1.73501 15.0072 -2.66687
1.54224 15.1757 -2.64492
1.12456 14.1236 -2.46116
1.17901 14.1656 -2.43538
1.34945 15.0195 -2.59619
1.15667 15.2114 -2.69573
0.885552 14.295 -2.52057
0.942785 14.3734 -2.50466
0.807394 14.3571 -2.5193
0.851674 14.4259 -2.52853
0.710498 14.3796 -2.54174
0.836596 14.9222 -2.63062
0.61617 14.4025 -2.55467
0.651221 15.0153 -2.62578
0.516466 14.3919 -2.58306
0.578334 15.1657 -2.63066
0.430313 14.4693 -2.54033
0.446869 14.5651 -2.53441
0.289166 15.1788 -2.64931
0.1095 14.4688 -2.54516
0.108616 14.5678 -2.56623
0.10762 14.7782 -2.60738
0.00918065 14.7801 -2.5968
0.0192172 15.0972 -2.64903
0.0963761 15.2224 -2.71138
-0.0114645 15.2098 -2.69351
0.00664087 14.5792 -2.47367
0.0114652 14.7983 -2.50092
-0.00896572 15.1169 -2.56318
0.00648764 14.5 -2.36407
0.00654696 14.5295 -2.17652
0.0377114 15.1657 -2.2649
-0.0323176 15.2976 -2.28461
0.0700344 15.1803 -2.16523
-0.0109667 15.2911 -2.18105
0.0311907 14.6446 -2.00059
-0.00357 14.5589 -1.89308
0.0132402 14.5988 -1.70659
0.0502907 15.1455 -1.65422
-0.00405556 14.6025 -1.51585
0.0219258 14.6378 -1.42387
0.0577461 14.7108 -1.43098
0.0173604 15.2667 -1.46527
0.0640605 14.7281 -1.24056
0.042183 14.8236 -1.24861
0.0134656 14.6677 -0.949292
-0.00392319 15.3056 -0.977718
0.0634437 14.7651 -0.668265
-0.037954 14.6361 -0.56762
0.00273735 14.6828 -0.379448
0.0152378 14.7753 -0.381835
0.0258801 14.7016 -0.284905
0.0431784 15.3322 -0.293398
-0.0122725 14.6724 -0.0947268
0.000883416 14.8928 -0.101468
0.0220232 14.707 -0.0110814
-0.0279801 15.3279 0.04197
4.83844 17.8561 -0.490029
4.81861 17.8308 -0.00950141
4.82227 17.7415 -0.381192
4.80927 17.6529 -0.097495
4.81498 17.5442 -0.484708
4.82131 17.4558 -0.00659426
4.82169 17.3572 -0.00621331
4.77132 17.2624 -0.264179
4.82373 17.2595 -0.18736
4.82424 17.0432 -0.405607
4.79554 17.0615 -0.0323566
4.81281 16.9454 -0.376958
4.8632 16.8369 -0.408006
4.81798 16.7827 -0.099797
4.83632 16.7659 0.00841592
4.80879 16.6465 -0.32025
4.81976 16.5687 -0.098558
4.83006 16.4702 -0.098559
4.78758 16.4702 -0.0403209
4.79593 16.2603 -0.173904
4.83149 16.2731 -0.098559
4.83164 16.1745 0.00560878
4.80554 16.0477 -0.211454
4.82877 16.0759 0.000651371
4.81309 15.6817 -0.022213
4.81514 15.6133 -0.265634
4.79566 15.4846 -0.0322353
4.78339 15.4934 -0.095665
4.80053 15.5019 -0.275462
4.84152 15.3843 -0.448028
4.81727 15.3679 -0.540847
4.86162 15.207 -1.04804
4.80894 15.1954 -0.814536
4.78269 15.1161 -0.800543
4.74572 15.1339 -0.704681
4.78747 15.1791 -0.094154
4.79131 15.0541 -0.591215
4.8095 15.0903 -0.018404
4.83804 14.8747 -0.96108
4.80783 14.8935 -0.854515
4.81347 14.9114 -0.756367
4.87012 14.7668 -0.978878
4.8341 14.5698 -0.90839
4.8517 14.3523 -0.887494
4.82555 14.9918 -0.00235406
4.78696 14.8932 -0.098559
4.81629 14.8932 -0.011612
4.80262 14.4964 -0.692906
4.801 14.4279 -0.68081
4.78978 14.5131 -0.59765
4.80722 14.4453 -0.585705
4.81446 14.6961 -0.098559
4.80806 14.6961 -0.0198434
4.77604 14.546 -0.407072
4.86096 14.499 0.0330578
4.75923 14.478 -0.372006
4.83868 14.4004 0.0107778
4.81618 14.3602 -0.362679
4.88404 14.3019 0.028069
4.76658 14.2954 -0.175555
4.84986 14.1047 0.0219616
4.75204 14.1038 -0.085143
4.80056 14.1023 -0.165874
4.82031 14.0918 -0.239348
4.81539 14.0806 -0.306613
4.79944 14.0088 -0.085248
4.81379 13.8923 -0.281242
4.83651 13.7947 -0.287271
4.87194 13.6959 -0.300868
4.84253 13.5974 0.0292188
4.81163 13.6236 -0.121096
4.85525 13.5521 -0.267419
4.72739 13.6234 -0.00594871
4.73432 13.6064 -0.127201
4.73095 13.6027 -0.249735
4.62693 13.6184 -0.0119623
4.63008 13.6321 -0.223205
4.52623 13.6259 -0.0231628
4.21843 13.6492 -0.0931904
4.23281 13.6202 -0.243962
4.22774 13.6692 -0.263224
4.12683 13.5552 0.0291175
4.12668 13.6507 -0.183199
4.02622 13.5583 0.0300369
4.04043 13.6496 -0.300417
4.04734 13.6226 -0.35408
3.86351 13.601 -0.429813
3.72176 13.5877 -0.0207063
3.51987 13.5821 -0.100841
3.42199 13.5484 -0.10066
3.32689 13.4927 0.0361701
3.22394 13.5091 0.0079479
3.1259 13.4832 0.0218155
3.02412 13.4871 0.00357957
3.22028 13.5401 -0.100759
3.02016 13.517 -0.100767
2.62273 13.452 -0.100638
2.51557 13.4817 -0.101182
2.45162 13.3784 -0.101256
2.63722 13.3644 -0.200484
2.52574 13.4242 -0.203268
2.41361 13.4056 -0.202963
2.42321 13.3992 -0.30432
3.38711 13.5274 -0.779515
2.37058 13.4407 -0.407009
3.24809 13.5638 -0.786743
2.44954 13.3709 -0.506299
2.53514 13.3636 -0.505965
2.42576 13.3867 -0.608375
3.1165 13.4784 -0.932874
2.93328 13.4576 -1.18116
2.98209 13.4666 -1.21305
2.4139 13.3552 -1.21607
2.54014 13.3227 -1.43558
2.4202 13.33 -1.41754
2.40058 13.3353 -1.52024
2.39897 13.3247 -1.62129
2.78633 13.3403 -1.7624
2.54497 13.2692 -1.72083
2.47459 13.2474 -1.81579
2.75307 13.2929 -1.95013
2.38014 13.3001 -1.92565
2.71728 13.297 -2.0456
2.62096 13.3141 -2.03496
2.39822 13.2768 -2.02504
2.71786 13.2713 -2.14157
2.38419 13.2388 -2.22479
2.70108 15.2173 -2.58217
2.74903 15.0126 -2.54626
2.71386 14.9251 -2.52932
2.74411 15.0295 -2.44805
2.72902 14.9503 -2.4326
2.7106 15.2404 -2.38366
2.72622 15.1502 -2.37193
2.67292 15.1676 -2.26334
2.75145 14.9788 -2.23507
2.76395 15.1795 -2.18051
2.78926 15.0809 -2.15754
2.76186 14.9852 -2.13376
2.84934 15.0312 -1.84651
2.95747 15.087 -1.68141
3.11075 15.2725 -1.4757
3.16318 15.2857 -1.38022
3.26692 15.2477 -1.16834
3.31265 15.1805 -1.20883
3.36347 15.3523 -1.13559
3.52061 15.5021 -1.0373
3.49335 15.3974 -0.977906
3.59988 15.4025 -0.955505
3.66575 15.489 -0.886823
3.85291 15.5244 -0.808733
3.96182 15.3242 -0.777668
3.9535 15.2521 -0.746091
4.23641 15.5761 -0.696638
4.23661 15.3447 -0.66209
4.24152 15.289 -0.668097
4.32223 15.243 -0.57304
4.42706 15.5699 -0.630412
4.41552 15.4732 -0.552373
4.43083 15.2836 -0.603189
4.5237 15.5576 -0.592301
4.52611 15.2688 -0.561844
4.62293 15.2448 -0.513187
4.7271 15.273 -0.544336
1.46717 12.7761 0.0467294
1.57613 12.7762 0.0361465
1.46064 12.9293 -0.0361873
1.43424 13.1558 -0.0156822
1.34597 13.4733 -0.0174683
0.213531 15.1336 -0.0384382
1.29669 13.5792 0.0212092
0.491438 15.3867 -0.0458994
0.712688 14.6113 -0.00284948
1.30912 13.9812 -0.0244325
0.971962 14.4681 -0.013582
1.12167 14.3349 -0.02548
1.16288 14.2419 -0.00320618
1.43107 13.6875 -0.000784327
1.42633 13.7924 -0.0578994
1.01772 14.5366 -0.0219834
1.33769 14.1111 -0.0311323
1.17034 14.3858 -0.0423884
1.23514 14.2997 0.0110517
0.866346 15.4885 -0.0332779
1.13546 15.6011 -0.0682018
2.3468 12.8799 -0.00704921
1.3572 15.6074 -0.0278223
1.30728 15.6929 -0.0202234
1.6275 15.9135 -0.0460102
2.60967 13.5314 -0.014595
1.97442 16.2523 -0.0458715
2.03601 16.4475 -0.0144217
3.07145 13.9071 0.0110837
3.21112 13.6172 -0.0648358
2.14527 16.6011 0.00257623
3.30053 13.7297 -0.00272096
2.17775 16.7044 0.0298773
2.2993 16.7264 -0.039911
3.453 14.2707 -0.0886059
3.44313 14.381 -0.00777975
3.57773 14.0687 0.02997
2.40353 16.9009 0.0191868
3.67325 14.1823 0.0340342
2.46502 16.9808 0.023999
3.81627 13.6755 8.87571e-05
2.56926 17.0108 -0.0131033
3.87617 14.3032 -0.00326635
3.74496 15.4844 -0.0152579
3.84231 15.5831 -0.0301362
3.28941 15.8541 -0.0492946
4.12558 14.4089 -0.0213413
3.94088 15.6817 -0.00540754
3.37769 15.8657 -0.0845388
3.07224 16.7234 0.0180697
4.22079 13.6994 -0.00777269
4.03944 15.5831 -0.0414348
4.03943 15.6817 -0.0493406
3.4623 15.8771 -0.0420728
3.94087 15.7803 -0.0401747
3.6495 15.7937 -0.0753843
3.84229 15.7803 -0.0420989
3.94088 15.8788 -0.0306615
3.09305 17.277 -0.0302389
4.43302 14.4007 0.0126394
4.03903 15.9922 -0.0195468
4.23655 15.9774 -0.0194787
4.52439 13.7094 -0.0135281
4.52579 13.9092 -0.0132539
4.53034 14.1052 -0.0566046
4.3351 15.5831 -0.0279976
4.03942 16.0759 -0.0501083
4.62559 13.711 -0.0576014
4.62968 14.0063 -0.0230547
4.43366 15.8788 -0.018441
4.43366 15.9774 -0.0377741
3.94086 16.1745 -0.0760418
4.43366 16.1745 -0.0165352
3.45161 17.1584 0.0289898
4.728 13.7105 -0.021663
4.72889 13.9076 -0.0851626
4.72926 14.2033 -0.0318652
4.72933 14.499 -0.0891573
4.72934 14.6961 0.00267132
4.72934 14.8932 -0.0397559
4.72934 14.9918 -0.0123762
4.72934 15.4846 -0.0275495
4.63078 15.6817 -0.0368309
4.72934 15.6817 -0.042492
4.53222 15.7803 -0.0326274
4.53222 15.9774 -0.0302942
4.53222 16.1745 -0.0417057
3.94087 16.2731 -0.0797176
4.03943 16.2731 -0.0475436
4.13799 16.2731 -0.0571145
4.23655 16.2731 -0.0558568
4.43366 16.2731 -0.0540588
3.40538 17.5165 -0.0286081
4.63078 15.9774 -0.0365522
4.63078 16.2731 -0.036676
3.45818 17.6454 0.0457402
4.43366 16.4702 -0.0508786
4.53222 16.4702 -0.0483143
3.98595 16.5364 -0.0161618
3.56163 17.6554 0.0396588
4.53222 16.6673 -0.0247907
4.24078 16.7869 -0.0435552
4.63078 16.7659 -0.0479975
3.84675 17.7458 0.0347246
4.13248 17.8367 0.0736788
4.72934 17.3572 -0.04326
4.62786 17.8992 0.0548404
1.86769 16.0872 -0.755635
2.14144 16.5906 -0.708216
2.17241 16.6943 -0.721182
3.00817 17.3251 -0.566029
3.07268 17.4118 -0.602826
3.05619 17.2469 -0.566352
3.81524 17.597 -0.531887
3.8952 17.6162 -0.492999
4.27513 17.4676 -0.554067
4.7291 17.5388 -0.515355
4.64242 17.2639 -0.413058
4.56507 17.2848 -0.389751
4.4984 17.3139 -0.447981
4.3767 17.3159 -0.46842
4.72616 17.0445 -0.398595
4.30771 17.3966 -0.463092
4.33985 16.9825 -0.378313
4.2733 17.07 -0.434802
4.2679 16.9911 -0.441416
4.72698 16.8407 -0.386456
4.62136 16.8497 -0.33542
4.10355 17.2123 -0.55753
4.72576 16.6461 -0.321867
4.73077 15.7323 -0.248262
4.73353 15.647 -0.17098
4.62319 16.7459 -0.340055
4.29364 16.7708 -0.327634
4.62084 16.1521 -0.203672
4.62606 15.9446 -0.212486
4.63966 15.7315 -0.232431
4.63748 15.6236 -0.141557
4.54415 15.6315 -0.163474
4.45833 15.6761 -0.241512
4.35773 15.629 -0.197012
4.52113 16.4442 -0.298971
4.53551 15.8371 -0.173202
4.54168 15.7383 -0.180502
4.26655 15.6329 -0.22302
4.26374 15.7283 -0.228572
4.41218 16.5478 -0.302254
4.307 16.5497 -0.336318
4.20985 16.548 -0.40295
4.1171 16.5603 -0.373148
4.0709 16.6269 -0.388803
4.41214 16.349 -0.253398
4.41986 16.1413 -0.259592
4.44304 15.831 -0.19193
4.17647 15.634 -0.251946
4.17375 15.7233 -0.257187
4.09765 15.6626 -0.322288
3.8682 16.5701 -0.452314
3.99591 15.622 -0.303383
4.00626 15.7072 -0.34918
4.09572 16.1046 -0.243535
3.90864 15.6198 -0.338707
3.91372 15.704 -0.367291
3.89747 15.8039 -0.341748
3.86257 16.2534 -0.418916
3.81208 15.5939 -0.347938
3.80091 15.7087 -0.340659
3.81385 15.7961 -0.387297
3.73144 15.6952 -0.417613
3.6619 15.6177 -0.475677
3.55958 15.5759 -0.477488
3.30864 16.0202 -0.738806
3.35595 15.675 -0.531545
3.31184 15.6569 -0.635168
3.28939 15.6451 -0.740912
3.26561 15.5676 -0.716427
3.17797 15.5361 -0.752703
3.10379 15.5246 -0.810435
3.06244 15.545 -0.908032
2.15263 16.5945 -0.0876431
2.17701 16.5625 -0.612604
2.11178 16.506 -0.0891583
1.9515 16.396 -0.0925134
2.38934 12.9832 -2.18793
2.43255 13.0978 -2.20731
2.4487 13.0238 -0.792568
2.4564 13.2728 -0.507457
2.4572 13.2762 -0.406876
2.40949 13.2809 -0.205652
2.33212 12.731 -2.04612
2.17566 12.7399 -1.45642
2.35484 12.8179 -1.17044
1.58147 12.6515 -2.13196
1.6784 12.6885 -2.1382
1.7783 12.7564 -1.26251
1.36741 13.6857 -0.103836
1.32928 13.4729 -0.102248
1.35272 13.2859 -2.23941
0.328758 14.6364 -1.33651
0.328537 14.4826 -2.44051
0.427669 14.6915 -0.111487
0.531068 14.5023 -2.44384
0.613358 14.4879 -1.9913
0.888563 14.5215 -0.220409
1.14506 14.3547 -0.108939
1.09788 14.1173 -2.37895
1.29419 13.9453 -0.953887
1.31384 13.79 -2.32379
1.42099 13.7891 -0.313957
1.34421 13.7787 -0.418359
0.0894536 14.4993 -2.45809
0.0757708 14.4942 -2.36379
0.135202 14.5694 -2.29677
0.066221 14.602 -2.10141
0.065704 14.6352 -1.4266
0.197105 14.6424 -1.23115
0.0657154 14.6857 -1.14008
0.0656964 14.6237 -0.845922
0.132029 14.7096 -0.445247
0.19707 14.7314 -0.41729
0.0673773 14.6659 -0.367901
0.0699301 14.7266 -0.276777
2.63658 15.2424 -2.38713
2.61139 15.1985 -2.5796
1.95464 15.2455 -2.58869
1.63873 15.3222 -1.64864
1.36338 15.1858 -2.38231
1.1021 15.1801 -2.57797
0.534076 15.1689 -2.5762
0.347577 15.1722 -2.57609
0.0964409 15.3246 -1.66874
0.0871614 15.2741 -2.16039
0.083376 15.2326 -2.2523
2.71517 14.0898 -2.38532
2.70007 14.1288 -2.29098
2.70525 14.1521 -2.1946
2.93014 14.2419 -1.55172
3.24725 14.3468 -1.06639
3.33334 14.331 -1.00945
3.56539 14.3431 -0.831837
3.71796 14.3775 -0.715121
3.8791 14.4173 -0.607241
4.06365 14.4158 -0.53892
4.24266 14.4538 -0.45953
4.34009 14.4486 -0.441454
4.44553 14.3924 -0.462606
4.53494 14.4427 -0.414332
4.6309 14.4629 -0.390542
4.73095 14.4153 -0.417917
2.70348 14.0062 -2.36994
2.92869 14.1349 -1.64083
3.15444 14.2087 -1.22213
3.27827 14.2345 -1.07546
4.06693 14.3303 -0.532228
4.25749 14.3373 -0.492332
4.53492 14.354 -0.398263
4.73118 14.3525 -0.406512
2.94509 14.04 -1.63147
4.33523 14.1658 -0.370803
2.67098 13.7259 -2.31898
4.04458 14.0596 -0.425918
4.33239 14.0743 -0.342428
4.72942 14.0785 -0.319386
4.32841 13.9838 -0.309277
4.72701 13.9939 -0.251754
4.33162 13.8878 -0.30622
4.62727 13.8974 -0.252001
4.72993 13.8895 -0.297389
2.70073 13.4449 -2.27085
4.33436 13.7923 -0.30119
4.62866 13.8012 -0.250187
2.68946 13.3861 -2.0577
2.7576 13.4366 -1.77132
3.78158 13.6605 -0.501638
4.0533 13.6814 -0.382511
4.4325 13.7015 -0.269201
4.72965 13.7034 -0.258658
4.75136 14.3824 -0.8579
4.74747 14.4189 -0.779305
4.74291 14.4221 -0.681799
4.73841 14.3888 -0.57784
4.54678 14.4505 -0.508288
4.51792 14.4117 -0.860708
4.26954 14.3868 -0.556804
4.17982 14.3749 -0.583104
4.03047 14.3278 -1.0734
3.96935 14.3122 -1.11651
3.90698 14.3036 -1.15789
3.85386 14.2809 -1.20943
3.65187 14.3998 -1.10905
3.81112 14.245 -1.26971
3.71957 14.2968 -1.2871
3.38926 14.3095 -1.07144
3.67177 14.2764 -1.3442
3.32469 14.2831 -1.13586
3.59775 14.2998 -1.38329
3.2633 14.2648 -1.20473
3.30779 14.2264 -1.65271
3.39124 14.224 -1.69643
3.23651 14.3165 -1.81469
3.24113 14.2485 -1.88881
3.20596 14.2008 -1.8695
3.02446 14.157 -1.79383
3.1789 14.1582 -1.9385
2.9945 14.1749 -1.88217
2.90245 14.1703 -1.85117
2.91403 14.1168 -2.22403
3.09686 14.1221 -2.32997
3.00044 14.1645 -2.32995
2.90398 14.1642 -2.32248
3.2198 14.0641 -2.40589
3.09142 14.1126 -2.40968
2.80141 14.0734 -2.39434
4.73129 15.2533 -0.629046
4.74058 15.173 -0.812663
4.74521 15.153 -0.908056
4.75067 15.1931 -1.03053
4.63473 15.2831 -0.641307
4.66262 15.1686 -0.916797
4.67124 15.1744 -1.01066
4.59191 15.1648 -1.00851
4.4992 15.1392 -0.935466
4.13371 15.1308 -1.12556
3.98477 15.2417 -0.810785
3.89805 15.2449 -0.854095
3.9301 15.1196 -1.24832
3.73065 15.2158 -0.946986
3.87655 15.129 -1.3117
3.82867 15.1407 -1.37987
3.75419 15.0845 -1.27091
3.69028 15.0829 -1.3241
3.2319 15.1229 -1.39043
3.43187 15.0335 -1.74036
3.39581 15.0271 -1.81071
3.32264 15.0086 -1.76232
3.38157 15.0389 -1.89541
3.3782 15.0574 -1.9837
3.3109 15.0082 -2.03038
3.28371 14.9955 -2.10226
3.20184 14.9258 -2.14748
3.04341 14.966 -2.1984
2.83329 15.0419 -2.26098
3.01007 14.8659 -2.35591
2.8056 14.917 -2.43415
3.152 14.8816 -2.46202
2.79869 14.9191 -2.53258
2.89608 14.9254 -2.53853
2.99346 14.9206 -2.54255
4.7516 14.9812 -0.950619
4.75077 14.5773 -0.866231
4.59971 14.469 -0.886299
4.52684 14.4646 -0.911466
4.43033 15.083 -0.967272
4.36925 14.4645 -0.912257
4.30031 14.4576 -0.951118
4.22096 14.4562 -0.959357
3.99954 14.544 -1.05525
3.73974 14.9167 -1.31645
3.59855 14.8877 -1.48134
3.54883 14.9824 -1.53815
3.45665 14.9441 -1.75498
3.38419 14.3387 -1.62516
3.26362 14.9006 -2.00158
3.21936 14.263 -2.05508
3.21216 14.3373 -2.22714
3.15323 14.3255 -2.29399
3.21179 14.8069 -2.53317
3.12829 14.7057 -2.51359
3.16896 14.4003 -2.46368
3.19816 14.2985 -2.44699
3.17559 14.1971 -2.42835
4.72294 15.5773 -0.244707
4.59701 15.6276 -0.313772
4.43906 15.6381 -0.233127
4.37527 15.6505 -0.233402
4.32647 15.6453 -0.255273
4.40225 15.5951 -0.56794
4.1813 15.6118 -0.309357
4.19072 15.5171 -0.539844
4.21361 15.5288 -0.605977
3.95655 15.6852 -0.495052
3.98336 15.5957 -0.549654
3.84302 15.6333 -0.449107
3.78212 15.619 -0.560102
3.58988 15.6151 -0.574643
3.27795 15.5669 -0.782045
3.5891 15.4714 -0.893501
3.20554 15.5679 -0.843345
3.50943 15.4705 -0.950827
3.06864 15.5531 -0.970031
3.43374 15.5109 -1.01753
3.13091 15.4265 -1.09503
3.30371 15.4394 -1.11932
4.54581 17.8034 -0.415299
4.45095 17.804 -0.420962
4.41693 17.8005 -0.0601382
4.39234 17.7421 -0.179665
4.13231 17.7635 -0.0619149
4.04145 17.7284 -0.0623586
3.95076 17.6949 -0.0628519
3.83588 17.7461 -0.0637198
3.40097 17.5179 -0.0674081
3.33057 17.4415 -0.0682325
2.63834 17.0828 -0.0775886
2.29252 16.7314 -0.084558
