1e-06 15.3644 -1.47466
2e-06 15.3735 -1.37664
0.081561 15.3783 -1.33713
-0 15.382 -1.27856
0.074123 15.3839 -1.26899
1e-06 15.3898 -1.18042
0.08942 15.3917 -1.17687
-0 15.397 -1.08223
1e-06 15.4036 -0.983978
-0 15.4096 -0.885684
1e-06 15.4149 -0.787352
-0 15.4196 -0.688986
1e-06 15.4237 -0.590594
-0 15.4271 -0.49218
1e-06 15.43 -0.393752
-0 15.4322 -0.295314
1e-06 15.4337 -0.196874
-0 15.4347 -0.098436
1e-06 15.435 -8e-06
0.092725 15.3996 -1.07053
0.094877 15.4054 -0.984086
0.09643 15.4114 -0.885797
0.097322 15.4168 -0.787458
0.097825 15.4215 -0.689084
0.098108 15.4256 -0.590681
0.098265 15.4291 -0.492256
0.098351 15.4319 -0.393817
0.098396 15.4341 -0.295368
0.098419 15.4357 -0.196916
0.097405 15.4366 -0.09846
0.093817 15.4368 -0
0.187589 15.4417 -0.096188
0.187445 15.442 -0
0.280791 15.4505 -0.095072
0.280789 15.4508 -0
0.373734 15.4628 -0.094496
0.373724 15.4631 -0
0.466122 15.4788 -0
0.46614 15.4785 -0.094178
0.557496 15.4979 0
0.557522 15.4977 -0.093859
0.648428 15.5206 0
0.648462 15.5203 -0.093789
0.738475 15.5466 0
0.738516 15.5463 -0.093777
0.827502 15.5759 0
0.82755 15.5757 -0.093781
0.914558 15.6083 0
0.914614 15.608 -0.09346
1.00111 15.6442 0
1.00118 15.644 -0.093544
1.08627 15.6833 0
1.08634 15.6831 -0.093632
1.17006 15.7257 0
1.17014 15.7255 -0.093759
1.24668 15.7483 -0.789448
1.27168 15.7578 -0.884619
1.25204 15.7711 0
1.25212 15.7709 -0.09377
1.33003 15.7997 -0.764459
1.35173 15.8086 -0.859975
1.33242 15.8197 0
1.33251 15.8194 -0.093839
1.4127 15.855 -0.743442
1.43075 15.8627 -0.838574
1.41061 15.871 0
1.41069 15.8708 -0.093741
1.49433 15.9142 -0.72719
1.50847 15.9202 -0.820972
1.48697 15.9253 0
1.48706 15.9251 -0.093739
1.5732 15.976 -0.715433
1.58433 15.9807 -0.807706
1.56108 15.9823 0
1.56118 15.9821 -0.093667
1.63317 16.0422 0
1.703 16.1048 0
1.77056 16.17 0
1.83568 16.2379 0
1.90328 16.314 0
1.6417 16.0342 -0.702763
1.65252 16.0392 -0.797383
1.63327 16.042 -0.093695
1.7031 16.1046 -0.093739
1.77066 16.1699 -0.093833
1.83578 16.2377 -0.09395
1.90328 16.3138 -0.094026
1.70747 16.0942 -0.688228
1.71865 16.1002 -0.786626
1.78261 16.1636 -0.775451
1.84308 16.2323 -0.665011
1.84414 16.2291 -0.763909
1.90328 16.3008 -0.658054
1.90328 16.2967 -0.751993
1.68596 15.9807 -0.807706
1.48859 15.7885 -0.869158
1.40805 15.7361 -0.896682
1.32689 15.6876 -0.927204
0.099361 15.3644 -1.47466
1.48291 12.6243 -2.226
1.40201 12.6774 -2.23537
2.35483 12.6778 -2.23544
2.29315 12.7326 -2.24511
2.23238 12.7129 -2.24163
1.87388 12.6935 -2.2382
1.77822 12.697 -2.23883
1.34756 12.7574 -2.24947
1.45414 12.7609 -2.25008
1.40376 12.7887 -2.255
3.1864 14.8952 -2.62643
3.1864 14.0828 -2.48317
3.1864 14.1843 -2.50108
3.1864 14.7937 -2.60852
3.1864 14.2859 -2.51898
3.1864 14.6921 -2.59061
3.1864 14.3874 -2.53689
3.1864 14.5905 -2.57271
3.1864 14.489 -2.5548
2.40888 12.7576 -2.24951
1.3285 12.8517 -2.26611
1.40318 12.8538 -2.26647
3.0889 14.8952 -2.62643
3.0897 14.0828 -2.48317
3.08679 14.7936 -2.60852
3.08968 14.1819 -2.50066
2.4279 12.8517 -2.26611
1.3285 12.956 -2.28449
1.4081 12.9445 -2.28246
2.7029 13.2408 -2.33471
2.7029 13.3343 -2.35121
1.3285 13.0602 -2.30286
1.41483 13.0469 -2.30053
2.7029 13.4279 -2.3677
2.61113 13.2262 -2.33214
2.61068 13.3246 -2.34948
2.60788 13.4279 -2.3677
1.3285 13.1644 -2.32124
1.42451 13.1646 -2.32127
2.6989 15.2005 -2.68026
2.7029 13.5215 -2.3842
2.60786 13.5215 -2.3842
1.3285 13.2686 -2.33962
2.60251 15.2005 -2.68026
2.40973 15.2005 -2.68026
1.3285 13.3729 -2.358
1.3285 13.4771 -2.37637
2.21695 15.2005 -2.68026
1.3237 13.5735 -2.39337
2.02417 15.2005 -2.68026
1.30927 13.6691 -2.41023
1.28545 13.7626 -2.42672
1.37711 13.7836 -2.43043
1.25256 13.8535 -2.44274
1.34183 13.8831 -2.44796
1.21071 13.9407 -2.45813
1.29677 13.9787 -2.46483
1.16039 14.0236 -2.47273
1.24229 14.0697 -2.48086
1.44584 15.2005 -2.68026
1.10208 14.1011 -2.48641
1.17901 14.1549 -2.49589
1.0365 14.1726 -2.49901
1.10773 14.2334 -2.50974
0.963959 14.2375 -2.51045
1.02807 14.305 -2.52236
1.15667 15.2005 -2.68026
0.885537 14.295 -2.52059
0.942784 14.3683 -2.53351
1.06028 15.2005 -2.68026
0.963893 15.2005 -2.68026
1.06028 15.1056 -2.66352
0.801544 14.3447 -2.52936
0.851675 14.4233 -2.54321
0.963893 15.1055 -2.66352
0.867504 15.1055 -2.66351
0.867504 15.2005 -2.68026
0.712934 14.3862 -2.53668
0.755475 14.4694 -2.55134
0.761769 15.1078 -2.66392
0.771114 15.2005 -2.68026
0.620725 14.419 -2.54245
0.656513 14.5067 -2.55792
0.665915 15.1093 -2.66417
0.674725 15.2005 -2.68026
0.525907 14.4425 -2.54661
0.55264 14.5331 -2.56258
0.578336 15.1052 -2.66346
0.578336 15.2005 -2.68026
0.429066 14.4569 -2.54914
0.481947 15.1049 -2.6634
0.481946 15.2005 -2.68026
0.3285 14.4619 -2.55002
0.385558 15.1044 -2.66331
0.385557 15.2005 -2.68026
0.219 14.4619 -2.55002
0.289172 15.1034 -2.66315
0.289168 15.2005 -2.68026
0.1095 14.4619 -2.55002
0.192779 15.2005 -2.68026
0 14.4619 -2.55002
-0 14.5674 -2.56863
-0 14.6729 -2.58723
-0 14.7785 -2.60584
-0 14.884 -2.62444
-0 14.9895 -2.64305
0.096455 15.099 -2.66235
-0 15.095 -2.66165
0.096389 15.2005 -2.68026
-0 15.2005 -2.68026
-0 14.4781 -2.45659
-0 14.5792 -2.47367
-0 15.2178 -2.58029
-0 14.4936 -2.36303
-0 14.5917 -2.37901
-0 15.2344 -2.48022
-0 14.5086 -2.26936
-0 14.605 -2.28442
-0 15.2504 -2.38007
-0 14.523 -2.17556
-0 14.6184 -2.18985
-0 15.2657 -2.27983
-0 14.5367 -2.08166
-0 14.6316 -2.09525
-0 15.2803 -2.1795
-0 14.5499 -1.98765
-0 14.6446 -2.00059
-0 15.2943 -2.07907
-0 14.5624 -1.89354
-0 14.657 -1.90585
-0 15.3077 -1.97856
-0 14.5744 -1.79935
-0 14.669 -1.81103
-0 15.3203 -1.87796
-0 14.5857 -1.70506
-0 14.6803 -1.71613
-0 15.3323 -1.77727
-0 14.5964 -1.6107
-0 14.6911 -1.62115
-0 15.3437 -1.67649
-0 14.6065 -1.51626
-0 14.7013 -1.5261
-0 15.2556 -1.56549
-0 15.3544 -1.57562
-0 14.616 -1.42176
-0 14.7108 -1.43098
-0 15.2667 -1.46527
-0 14.6249 -1.32719
-0 14.7198 -1.3358
-0 15.2757 -1.36789
-0 14.6332 -1.23256
-0 14.7281 -1.24056
-0 15.2841 -1.27043
-0 14.6409 -1.13789
-0 14.7358 -1.14527
-0 15.2919 -1.17292
-0 14.6479 -1.04317
-0 14.7429 -1.04993
-0 15.299 -1.07534
-0 14.6543 -0.948408
-0 14.7494 -0.954561
-0 15.3056 -0.977718
-0 14.6602 -0.853616
-0 14.7553 -0.859153
-0 15.3115 -0.880047
-0 14.6654 -0.758798
-0 14.7605 -0.763719
-0 15.3167 -0.782338
-0 14.67 -0.663958
-0 14.7651 -0.668265
-0 15.3213 -0.684595
-0 14.674 -0.569104
-0 14.7691 -0.572796
-0 15.3253 -0.586823
-0 14.6773 -0.474241
-0 14.7725 -0.477316
-0 15.3285 -0.489028
-0 14.6801 -0.379375
-0 14.7753 -0.381835
-0 15.3308 -0.391217
-0 14.6822 -0.284512
-0 14.7774 -0.286357
-0 14.6838 -0.189658
-0 14.7789 -0.190888
-0 14.6847 -0.094819
-0 14.7826 -0.095408
-0 15.3309 -0.097811
-0 14.685 -0
-0 14.7921 0
-0 14.8993 0
-0 15.0064 0
-0 15.1136 0
-0 15.2207 0
-0 15.3279 0
4.8279 17.8436 -0.479237
4.8279 17.8459 -0.383404
4.8279 17.8477 -0.287563
4.8279 17.849 -0.191716
4.8279 17.8497 -0.095861
4.8279 17.85 0
4.8279 17.7427 -0.497019
4.8279 17.7499 -0.190636
4.8279 17.7514 -0.096741
4.8279 17.7514 0
4.8279 17.6419 -0.514801
4.8279 17.6529 -0.097495
4.8279 17.6529 0
4.8279 17.542 -0.497191
4.8279 17.5543 -0.097957
4.8279 17.5543 0
4.8279 17.4421 -0.47958
4.8279 17.4558 -0.098221
4.8279 17.4558 0
4.8279 17.3423 -0.46197
4.8279 17.3572 -0.09837
4.8279 17.3572 0
4.8279 17.2424 -0.44436
4.8279 17.2586 -0.098454
4.8279 17.2586 0
4.8279 17.1425 -0.42675
4.8279 17.1583 -0.340981
4.8279 17.1601 -0.0985
4.8279 17.1601 0
4.8279 17.0426 -0.40914
4.8279 17.0625 -0.328766
4.8279 17.0615 -0.098526
4.8279 17.0615 0
4.8279 16.9692 -0.311392
4.8279 16.9428 -0.39153
4.8279 16.963 -0.09854
4.8279 16.963 0
4.8279 16.8429 -0.37392
4.8279 16.8644 0
4.8279 16.743 -0.35631
4.8279 16.7659 0
4.8279 16.6432 -0.3387
4.8279 16.6673 -0.098555
4.8279 16.6673 0
4.8279 16.5433 -0.32109
4.8279 16.5687 -0.098558
4.8279 16.5687 0
4.8279 16.4434 -0.303479
4.8279 16.4607 -0.205309
4.8279 16.4702 -0.098559
4.8279 16.4702 0
4.8279 16.3435 -0.285869
4.8279 16.3606 -0.189047
4.8279 16.3716 -0.098559
4.8279 16.3716 0
4.8279 16.2437 -0.268259
4.8279 16.2603 -0.173904
4.8279 16.2731 -0.098559
4.8279 16.2731 0
4.8279 16.1438 -0.250649
4.8279 16.1688 -0.091508
4.8279 16.1745 0
4.8279 16.07 -0.086031
4.8279 16.0759 0
4.8279 15.9831 -0.081451
4.8279 15.9774 0
4.8279 15.8788 0
4.8279 15.7803 0
4.8279 15.6817 0
4.8279 15.6629 -0.076692
4.8279 15.5702 -0.583604
4.8279 15.5831 0
4.8279 15.6099 -0.084399
4.8279 15.4846 0
4.8279 15.4934 -0.095665
4.8279 15.386 0
4.8279 15.386 -0.098559
4.8279 15.1803 -1.00987
4.8279 15.1972 -0.913848
4.8279 15.2875 -0.098559
4.8279 15.2875 0
4.8279 15.0787 -0.991959
4.8279 15.0977 -0.89629
4.8279 15.1791 -0.094154
4.8279 15.1889 0
4.8279 14.9771 -0.974052
4.8279 15.0808 -0.096475
4.8279 15.0903 0
4.8279 14.8756 -0.956144
4.8279 14.774 -0.938237
4.8279 14.6725 -0.920329
4.8279 14.5709 -0.902422
4.8279 14.4693 -0.884515
4.8279 14.3678 -0.866607
4.8279 14.9918 -0.098559
4.8279 14.9918 0
4.8279 14.4811 -0.788415
4.8279 14.3846 -0.771376
4.8279 14.8932 -0.098559
4.8279 14.8932 0
4.8279 14.7947 -0.098559
4.8279 14.7947 0
4.8279 14.6961 -0.098559
4.8279 14.6961 0
4.8279 14.5976 -0.098559
4.8279 14.5976 0
4.8279 14.499 0
4.8279 14.499 -0.098559
4.8279 14.4004 0
4.8279 14.4004 -0.098559
4.8279 14.3019 0
4.8279 14.3019 -0.098559
4.8279 14.2033 0
4.8279 14.2043 -0.089266
4.8279 14.1047 0
4.8279 14.1038 -0.085143
4.8279 14.0062 0
4.8279 14.0088 -0.085248
4.8279 13.984 -0.307976
4.8279 13.9135 -0.076846
4.8279 13.9076 0
4.8279 13.9064 -0.203803
4.8279 13.8905 -0.291481
4.8279 13.8399 -0.085883
4.8279 13.8091 0
4.8279 13.834 -0.187292
4.8279 13.7969 -0.274985
4.8279 13.7105 0
4.8279 13.7034 -0.25849
4.8279 13.612 0
4.8279 13.6114 -0.121002
4.8279 13.6098 -0.241995
4.72748 13.6116 -0
4.73429 13.611 -0.127247
4.73068 13.6094 -0.244192
4.62705 13.6105 -0
4.63275 13.6082 -0.250843
4.52661 13.6086 -0
4.53524 13.6063 -0.261942
4.42615 13.606 -0
4.39272 13.6047 -0.093938
4.43835 13.6035 -0.277464
4.39911 13.6038 -0.197304
4.3257 13.6027 -0
4.31749 13.6021 -0.086155
4.34229 13.6 -0.297377
4.32131 13.6008 -0.217192
4.22525 13.5986 -0
4.22072 13.5981 -0.092862
4.23384 13.5968 -0.243545
4.24727 13.5958 -0.321638
4.12482 13.5938 -0
4.14054 13.5919 -0.268865
4.15349 13.5907 -0.350194
4.02442 13.5882 -0
4.0441 13.5861 -0.299043
4.06072 13.5849 -0.383149
3.92404 13.5819 -0
3.94878 13.5794 -0.334029
3.97002 13.5784 -0.420125
3.82371 13.5749 -0
3.88115 13.5712 -0.461187
3.72342 13.5671 -0
3.7943 13.5632 -0.506247
3.62319 13.5585 -0
3.52303 13.5493 -0
3.67391 13.555 -0.464651
3.70966 13.5546 -0.555209
3.42294 13.5393 -0
3.58152 13.5445 -0.526916
3.6274 13.5453 -0.607968
3.32294 13.5285 -0
3.22302 13.517 -0
3.1232 13.5048 -0
3.02349 13.4918 -0
2.92389 13.4781 -0
3.49829 13.5342 -0.584774
3.54771 13.5353 -0.664412
2.52689 13.4157 -0.100692
2.4279 13.3983 -0.10143
3.42413 13.5241 -0.643235
3.47075 13.5247 -0.724421
2.4279 13.3972 -0.202838
2.4279 13.3953 -0.304235
3.39668 13.5136 -0.787865
2.4279 13.3926 -0.405614
3.32567 13.5018 -0.854611
2.4279 13.3891 -0.506969
3.25786 13.4895 -0.924515
2.4279 13.3849 -0.608296
3.19341 13.4766 -0.997429
2.4279 13.3799 -0.709588
3.13244 13.4633 -1.0732
2.4279 13.3742 -0.810839
3.07509 13.4494 -1.15165
2.4279 13.3677 -0.911733
3.02148 13.4351 -1.23264
2.4279 13.3604 -1.01289
2.97172 13.4204 -1.31597
2.4279 13.3523 -1.11398
2.92593 13.4054 -1.40148
2.4279 13.3435 -1.21501
2.88419 13.3899 -1.48898
2.4279 13.3339 -1.31597
2.8466 13.3742 -1.57829
2.4279 13.3236 -1.41686
2.81309 13.3581 -1.66965
2.4279 13.3125 -1.51766
2.42791 13.3006 -1.61838
2.42791 13.288 -1.719
2.4279 13.2746 -1.81953
2.4279 13.2604 -1.91995
2.4279 13.2455 -2.02027
2.52611 13.2469 -2.1232
2.4279 13.2298 -2.12046
2.70517 13.2578 -2.23805
2.61129 13.243 -2.23509
2.51973 13.2284 -2.2288
2.4279 13.2134 -2.22054
2.70123 15.2175 -2.5822
2.70133 15.013 -2.54403
2.70132 14.9129 -2.52645
2.70854 14.9304 -2.4271
2.72056 14.9478 -2.32814
2.7373 14.9651 -2.23
2.75882 14.9823 -2.13252
2.78505 14.9993 -2.03602
2.81586 15.0161 -1.94106
2.85126 15.0326 -1.84753
2.88736 15.1447 -1.78116
2.89124 15.0488 -1.75557
2.93136 15.1585 -1.69057
2.93552 15.0646 -1.66578
2.97926 15.1721 -1.60293
2.98413 15.0801 -1.57811
3.031 15.1846 -1.51801
3.03688 15.0951 -1.49287
3.08712 15.1958 -1.43483
3.09371 15.1097 -1.41019
3.15348 15.2043 -1.34575
3.15442 15.1238 -1.33032
3.21877 15.2198 -1.26812
3.21911 15.1374 -1.25319
3.29141 15.2436 -1.19141
3.2873 15.1504 -1.17934
3.36528 15.2578 -1.11945
3.35922 15.1629 -1.10854
3.434 15.1747 -1.04163
3.51182 15.1858 -0.978361
3.59269 15.1963 -0.918734
3.67632 15.2062 -0.862965
3.76284 15.2153 -0.810988
3.85179 15.2238 -0.763126
3.94295 15.2315 -0.719485
4.03618 15.2384 -0.68014
4.13113 15.2445 -0.645238
4.22771 15.2499 -0.614812
4.32566 15.2545 -0.588949
4.42469 15.2582 -0.567718
4.52471 15.2612 -0.551143
4.62526 15.2632 -0.539292
4.72659 15.3656 -0.549967
4.72651 15.2645 -0.532152
1.48195 12.8194 -0
1.5785 12.8 -0
1.5977 12.8912 -0
1.52286 12.9098 -0
1.46064 12.9293 -0
1.40143 12.8735 -0
1.6784 12.8 -0
1.68521 12.8857 -0
1.34748 12.9545 -0
1.7783 12.8 -0
1.78269 12.8859 -0
1.3285 13.05 -0
0.105421 15.3387 -0
0.1095 14.685 -0
0.202452 15.3476 -0
1.8782 12.8 -0
1.88314 12.8896 -0
1.3285 13.1558 -0
1.3285 13.2617 -0
1.3285 13.3675 -0
1.3285 13.4733 -0
0.219 14.685 -0
0.299237 15.357 -0
1.9781 12.8 -0
1.97818 12.893 -0
1.3285 13.5792 -0
0.3285 14.685 -0
0.395613 15.3701 -0
0.491438 15.3867 -0
2.078 12.8 -0
2.07802 12.8959 -0
0.426529 14.6802 -0
0.523606 14.6658 -0
0.6188 14.6419 -0
1.3285 13.685 -0
0.711558 14.6087 -0
1.32376 13.7823 -0
0.800255 14.5667 -0
1.30944 13.8793 -0
0.884408 14.5162 -0
1.28567 13.9745 -0
0.963208 14.4578 -0
1.25253 14.0673 -0
1.03589 14.3918 -0
1.21061 14.156 -0
1.10177 14.3191 -0
1.16019 14.2402 -0
0.586286 15.4067 -0
2.1779 12.8 -0
2.17035 12.8976 -0
0.838847 14.654 -0
1.40238 13.9066 -0
0.931118 14.5998 -0
1.37476 14.01 -0
1.01772 14.5366 -0
1.33769 14.1111 -0
1.0977 14.4649 -0
1.29103 14.2078 -0
1.17034 14.3858 -0
1.23514 14.2997 -0
0.680654 15.4305 -0
0.774054 15.4578 -0
2.27298 12.8188 -0
2.24277 12.9095 -0
0.866346 15.4885 -0
0.95742 15.5226 -0
1.04718 15.5602 -0
1.13546 15.6011 -0
1.22232 15.6455 -0
2.30105 12.9254 -0
2.35358 12.8721 -0
2.31827 12.9865 -0
1.30728 15.6929 -0
2.40812 12.9525 -0
2.4279 13.05 -0
1.39051 15.7437 -0
1.47165 15.7973 -0
1.55061 15.8538 -0
1.6275 15.9135 -0
1.70209 15.976 -0
1.77421 16.0413 -0
1.84374 16.1092 -0
1.9106 16.1799 -0
1.97442 16.2523 -0
2.03608 16.3242 -0
1.96414 16.3855 -0
2.09734 16.3953 -0
2.02501 16.4569 -0
2.15889 16.4661 -0
2.08588 16.5283 -0
2.22063 16.5364 -0
2.14674 16.5998 -0
2.28394 16.6098 -0
2.21119 16.6744 -0
2.3485 16.6804 -0
2.27756 16.747 -0
2.41506 16.7492 -0
2.34602 16.8179 -0
2.48365 16.8165 -0
2.4167 16.8869 -0
2.55396 16.8816 -0
2.48903 16.9538 -0
2.62586 16.9442 -0
2.56293 17.0183 -0
2.69974 17.0052 -0
2.63893 17.081 -0
2.77516 17.0638 -0
2.71644 17.1414 -0
2.79554 17.1995 -0
2.85214 17.1201 -0
2.93115 17.175 -0
2.8769 17.2558 -0
3.01148 17.2273 -0
2.95953 17.3096 -0
3.09305 17.277 -0
3.04335 17.3609 -0
3.1761 17.3245 -0
3.12871 17.4099 -0
3.26073 17.37 -0
3.21579 17.4566 -0
3.34664 17.4132 -0
3.3042 17.5009 -0
4.728 13.7105 -0
4.72855 13.8091 -0
4.72889 13.9076 -0
4.72909 14.0062 -0
4.7292 14.1047 -0
4.72926 14.2033 -0
4.7293 14.3019 -0
4.72932 14.4004 -0
4.72933 14.499 -0
4.72933 14.5976 -0
4.72934 14.6961 -0
4.72934 14.7947 -0
4.72934 14.8932 -0
4.72934 14.9918 -0
4.72934 15.0904 -0
4.72934 15.1889 -0
4.72934 15.2875 -0
4.72934 15.386 -0
4.72934 15.4846 -0
4.72934 15.5831 -0
4.72934 15.6817 -0
3.43368 17.4538 -0
3.39376 17.5427 -0
4.72934 15.7803 -0
3.5217 17.4919 -0
3.48431 17.5818 -0
4.72934 15.8788 -0
4.72934 15.9774 -0
4.72934 16.0759 -0
4.72934 16.1745 -0
4.72934 16.2731 -0
4.72934 16.3716 -0
4.72934 16.4702 -0
3.61055 17.5273 -0
3.57568 17.6183 -0
4.72934 16.5687 -0
3.7005 17.5603 -0
3.66821 17.6523 -0
4.72934 16.6673 -0
3.79169 17.5911 -0
3.76205 17.6837 -0
4.72934 16.7659 -0
3.88329 17.619 -0
3.85627 17.7124 -0
4.72934 16.8644 -0
3.97568 17.6443 -0
3.95133 17.7384 -0
4.72934 16.963 -0
4.06874 17.667 -0
4.04705 17.7618 -0
4.72934 17.0615 -0
4.72934 17.1601 -0
4.16212 17.687 -0
4.14311 17.7824 -0
4.72934 17.2586 -0
4.25629 17.7044 -0
4.23999 17.8002 -0
4.72934 17.3572 -0
4.35095 17.7193 -0
4.33733 17.8154 -0
4.72934 17.4558 -0
4.44598 17.7316 -0
4.43506 17.8279 -0
4.72934 17.5543 -0
4.54087 17.7411 -0
4.53269 17.8375 -0
4.72934 17.6529 -0
4.63617 17.748 -0
4.63096 17.8445 -0
4.72935 17.7514 -0
4.72939 17.8486 -0
1.69252 16.0191 -0.800935
1.76026 16.046 -0.796202
1.97859 16.2479 -0.760591
1.96413 16.3688 -0.739285
2.03363 16.3123 -0.749247
2.02486 16.4407 -0.726605
2.09565 16.3827 -0.736827
2.08587 16.5129 -0.713871
2.14996 16.4489 -0.725148
2.14674 16.5849 -0.701167
2.21899 16.5254 -0.711669
2.20847 16.6571 -0.68844
2.28015 16.596 -0.699214
2.27216 16.7276 -0.676007
2.34214 16.6646 -0.687117
2.33777 16.7964 -0.663879
2.40596 16.7316 -0.67531
2.4053 16.8635 -0.652057
2.47167 16.7968 -0.663804
2.4746 16.9286 -0.640565
2.53909 16.8603 -0.652619
2.54568 16.9919 -0.629406
2.60825 16.9219 -0.641757
2.61848 17.0533 -0.618586
2.67908 16.9816 -0.631228
2.75104 17.0392 -0.621069
2.69257 17.1124 -0.608171
2.76867 17.1697 -0.598058
2.82511 17.095 -0.611236
2.84633 17.225 -0.588311
2.90779 17.1547 -0.600708
2.92551 17.2781 -0.578938
2.98526 17.2059 -0.591684
3.00614 17.3291 -0.569946
3.08816 17.3779 -0.561342
3.05619 17.25 -0.5839
3.13599 17.2974 -0.575532
3.17109 17.4242 -0.553176
3.21656 17.3426 -0.567563
3.25571 17.4685 -0.54537
3.29891 17.3857 -0.559977
3.34155 17.5105 -0.537973
3.38243 17.4264 -0.55279
3.42853 17.5501 -0.530991
3.45168 17.4567 -0.547451
3.51659 17.5873 -0.524431
3.5527 17.5011 -0.539627
3.60567 17.622 -0.518298
3.63934 17.5349 -0.533664
3.6957 17.6544 -0.512596
3.72689 17.5663 -0.528119
3.78655 17.6842 -0.507335
3.81524 17.5954 -0.522999
3.87825 17.7116 -0.502509
3.8952 17.6207 -0.518533
3.9707 17.7364 -0.498129
3.98522 17.6442 -0.514389
4.07587 17.6654 -0.510645
4.06381 17.7587 -0.494198
4.176 17.687 -0.506845
4.15752 17.7784 -0.490721
4.27233 17.7124 -0.502359
4.25175 17.7956 -0.4877
4.34229 17.7447 -0.496668
4.34671 17.8102 -0.485128
4.44176 17.8221 -0.483024
4.53712 17.8314 -0.481381
4.6327 17.8381 -0.480202
4.72967 17.6364 -0.515759
4.73122 17.7476 -0.496166
4.72844 17.8421 -0.479488
4.72842 17.5417 -0.499105
4.73745 17.4412 -0.481033
4.73678 17.3434 -0.463827
4.63587 15.7396 -0.186708
4.63913 15.6432 -0.169471
4.54547 15.6417 -0.17801
4.45199 15.6396 -0.189965
4.35896 15.6369 -0.205317
4.54336 15.7358 -0.194843
4.45076 15.7327 -0.206564
4.35836 15.7296 -0.221781
4.26673 15.6336 -0.224002
4.26644 15.7262 -0.240396
4.17516 15.6297 -0.246046
4.17514 15.7224 -0.262385
4.08467 15.6253 -0.271343
4.08469 15.7179 -0.287669
3.99487 15.6202 -0.300005
3.9949 15.713 -0.316352
3.90634 15.6146 -0.331865
3.90637 15.7074 -0.348217
3.81913 15.6084 -0.366889
3.81916 15.7012 -0.383238
3.73322 15.6017 -0.405082
3.73325 15.6945 -0.421432
3.6488 15.5944 -0.446368
3.64883 15.6872 -0.462719
3.56599 15.5866 -0.490691
3.56602 15.6794 -0.507042
3.48483 15.6711 -0.554399
3.4848 15.5782 -0.538043
3.40553 15.5694 -0.588257
3.40556 15.6622 -0.60461
3.32822 15.6529 -0.657663
3.32819 15.56 -0.641313
3.25296 15.5502 -0.697085
3.16196 15.7649 -0.810709
3.17981 15.5399 -0.755597
3.10879 15.5291 -0.816824
3.04021 15.5178 -0.880497
3.02924 15.6038 -0.906615
2.14674 16.5995 -0.087671
2.14674 16.5884 -0.613563
2.08588 16.5281 -0.089273
2.08587 16.5165 -0.624694
2.02501 16.4566 -0.090867
2.025 16.4446 -0.635819
1.96414 16.3852 -0.092453
1.96413 16.3727 -0.646937
2.4279 12.8686 -2.1686
2.4279 13.0978 -2.20731
2.4279 13.2821 -0.10502
2.35388 12.6935 -2.13901
2.40806 12.7723 -2.1523
2.1779 12.7996 -0.09713
2.27297 12.8184 -0.097273
2.35365 12.8718 -0.097678
2.40812 12.9522 -0.098288
1.5785 12.7996 -0.09713
1.6784 12.7996 -0.09713
1.7783 12.7996 -0.09713
1.8782 12.7996 -0.09713
1.9781 12.7996 -0.09713
2.078 12.7996 -0.09713
1.3285 12.8686 -2.16852
1.34744 12.7744 -2.15266
1.40139 12.6946 -2.1392
1.48189 12.6412 -2.1302
1.3285 13.0496 -0.099027
1.3475 12.954 -0.098302
1.40134 12.8732 -0.097689
1.48179 12.8191 -0.097278
1.3285 13.0771 -2.20501
1.3285 13.1554 -0.099892
1.3285 12.9726 -2.1878
0.089452 14.4784 -2.45454
0.075771 14.4935 -2.36367
0.069569 14.5077 -2.27474
0.067124 14.5216 -2.18428
0.066217 14.5352 -2.09179
0.065889 14.5485 -1.99785
0.06577 14.5612 -1.90303
0.065727 14.5733 -1.80773
0.065711 14.5848 -1.71217
0.065705 14.5958 -1.61644
0.065704 14.6061 -1.52061
0.065704 14.6157 -1.4247
0.065704 14.6248 -1.32871
0.065701 14.6332 -1.23275
0.065702 14.641 -1.13661
0.065704 14.6481 -1.04046
0.065704 14.6546 -0.944272
0.065704 14.6605 -0.848046
0.065704 14.6657 -0.751783
0.065708 14.6704 -0.655488
0.065805 14.6743 -0.559165
0.066251 14.6777 -0.463083
0.067376 14.6804 -0.368261
0.069942 14.6824 -0.275946
0.076079 14.6838 -0.186024
0.089588 14.6847 -0.094983
2.61139 15.2174 -2.58281
2.51941 15.2173 -2.58313
2.42627 15.2173 -2.58337
2.33246 15.2172 -2.58354
0.09788 15.3547 -1.57272
0.096439 15.3443 -1.67089
0.095035 15.3333 -1.76918
0.093607 15.3216 -1.86757
0.092007 15.3093 -1.96595
0.089964 15.2964 -2.06412
0.08716 15.2829 -2.16164
0.083369 15.269 -2.25767
0.078807 15.255 -2.3506
0.078214 15.2294 -2.51095
0.075019 15.2414 -2.43722
2.71197 14.1168 -2.29008
2.72328 14.1337 -2.19405
2.73908 14.1505 -2.09863
2.75934 14.1672 -2.00404
2.78402 14.1837 -1.91047
3.13211 14.3051 -1.22203
3.19306 14.3185 -1.14624
3.25751 14.3314 -1.07332
3.3253 14.3437 -1.00339
3.3963 14.3554 -0.936633
3.47035 14.3666 -0.873171
3.5473 14.3772 -0.813145
3.62699 14.3872 -0.756683
3.70923 14.3965 -0.703905
3.79386 14.4051 -0.654925
3.88071 14.4131 -0.609846
3.96957 14.4203 -0.568765
4.06026 14.4268 -0.531769
4.15259 14.4326 -0.498937
4.24637 14.4377 -0.47034
4.34138 14.4419 -0.446039
4.43743 14.4455 -0.426085
4.53432 14.4482 -0.410521
4.63183 14.4502 -0.39938
2.71197 14.0232 -2.27358
2.72328 14.0402 -2.17755
2.73908 14.057 -2.08214
2.75934 14.0737 -1.98755
3.19306 14.2249 -1.12975
3.25751 14.2378 -1.05682
3.3253 14.2501 -0.9869
3.3963 14.2619 -0.920138
3.47035 14.2731 -0.856676
3.5473 14.2837 -0.79665
3.62699 14.2936 -0.740188
3.70923 14.3029 -0.68741
3.79386 14.3116 -0.63843
3.88071 14.3195 -0.593351
3.96957 14.3268 -0.55227
4.06026 14.3333 -0.515274
4.15259 14.3391 -0.482442
4.24637 14.3441 -0.453845
4.34138 14.3484 -0.429544
4.43743 14.3519 -0.40959
4.53432 14.3547 -0.394025
4.63183 14.3566 -0.382884
2.70517 13.632 -2.30404
4.72976 13.9836 -0.310209
2.70517 13.5385 -2.28755
4.72976 13.8901 -0.293713
2.70517 13.4449 -2.27105
4.72976 13.7965 -0.277218
2.70517 13.3514 -2.25456
2.75934 13.4188 -1.87208
2.78402 13.4353 -1.77851
2.81306 13.4516 -1.68616
2.8464 13.4677 -1.59523
2.88396 13.4834 -1.50591
2.92568 13.4988 -1.4184
2.97145 13.5139 -1.33288
3.02119 13.5286 -1.24953
3.07478 13.5429 -1.16854
3.13211 13.5567 -1.09006
3.19306 13.5701 -1.01428
3.25751 13.5829 -0.941352
3.3253 13.5953 -0.871432
3.3963 13.607 -0.80467
3.47035 13.6182 -0.741208
3.5473 13.6288 -0.681182
3.62699 13.6388 -0.624721
3.70923 13.6481 -0.571943
3.79386 13.6567 -0.522962
3.88071 13.6647 -0.477883
3.96957 13.6719 -0.436802
4.06026 13.6784 -0.399806
4.15259 13.6842 -0.366975
4.24637 13.6893 -0.338378
4.34138 13.6936 -0.314077
4.43743 13.6971 -0.294122
4.53432 13.6998 -0.278558
4.63183 13.7018 -0.267417
4.72976 13.703 -0.260723
4.75205 14.3675 -0.868327
4.74747 14.3843 -0.773204
4.67635 14.3666 -0.873506
4.66718 14.3833 -0.778704
4.64016 14.4334 -0.494253
4.60092 14.3651 -0.882099
4.58719 14.3817 -0.787841
4.54677 14.4316 -0.504957
4.52601 14.3629 -0.894186
4.50675 14.3794 -0.800868
4.45294 14.4289 -0.520135
4.45178 14.3602 -0.909605
4.42821 14.3765 -0.817262
4.36059 14.4255 -0.539443
4.37851 14.3569 -0.928334
4.35038 14.373 -0.837252
4.26954 14.4213 -0.562894
4.30603 14.353 -0.950393
4.27349 14.3688 -0.860761
4.17982 14.4165 -0.590419
4.09163 14.4109 -0.621976
4.19806 14.3641 -0.887756
4.2347 14.3485 -0.975853
4.00459 14.4046 -0.657706
4.1235 14.3587 -0.918271
4.16462 14.3435 -1.00441
3.91966 14.3977 -0.697219
4.05078 14.3527 -0.952083
4.09596 14.3379 -1.03623
3.83659 14.39 -0.740582
3.97962 14.3462 -0.98914
4.02884 14.3317 -1.07105
3.75566 14.3817 -0.787693
3.91037 14.3391 -1.02939
3.96344 14.3251 -1.10892
3.67719 14.3728 -0.83837
3.84312 14.3315 -1.07272
3.89989 14.3179 -1.14973
3.60111 14.3632 -0.892572
3.77799 14.3233 -1.11903
3.83831 14.3102 -1.19337
3.52763 14.3531 -0.950249
3.71502 14.3146 -1.16834
3.77886 14.302 -1.23977
3.45693 14.3423 -1.01121
3.65446 14.3054 -1.22045
3.72165 14.2933 -1.28884
3.38926 14.331 -1.07523
3.59652 14.2958 -1.27516
3.6668 14.2842 -1.34047
3.3247 14.3192 -1.14223
3.54118 14.2857 -1.33247
3.61444 14.2747 -1.39454
3.26329 14.3069 -1.21216
3.48856 14.2751 -1.39226
3.56466 14.2648 -1.45092
3.20521 14.294 -1.28488
3.43874 14.2641 -1.45443
3.51756 14.2544 -1.50949
3.15069 14.2808 -1.36006
3.392 14.2528 -1.51869
3.47326 14.2437 -1.57021
3.09975 14.2671 -1.43759
3.34829 14.2411 -1.58501
3.43186 14.2327 -1.63282
3.05255 14.253 -1.51737
3.30779 14.2291 -1.65319
3.39347 14.2213 -1.69723
3.00905 14.2386 -1.59923
3.2705 14.2168 -1.72312
3.35809 14.2097 -1.7634
2.9695 14.2238 -1.68303
3.23652 14.2041 -1.79484
3.32594 14.1977 -1.83108
3.29693 14.1856 -1.90011
3.20596 14.1912 -1.86782
2.93392 14.2088 -1.76834
3.27126 14.1732 -1.97019
3.1789 14.1782 -1.94203
2.90245 14.1935 -1.85527
3.24891 14.1606 -2.04159
3.15535 14.1649 -2.01747
2.87506 14.1779 -1.94353
3.22972 14.1478 -2.11431
3.1352 14.1514 -2.09415
2.85179 14.1621 -2.03295
3.21413 14.1349 -2.18736
3.11877 14.1377 -2.1715
2.83278 14.1462 -2.12341
3.20198 14.1219 -2.26098
3.106 14.124 -2.24928
2.81804 14.1301 -2.21445
3.19328 14.1088 -2.33521
3.09686 14.1101 -2.32786
2.80755 14.1139 -2.30626
3.18809 14.0957 -2.40974
3.09142 14.0962 -2.4068
4.7452 15.1968 -0.91578
4.74977 15.1799 -1.0117
4.63473 15.2464 -0.634835
4.66263 15.1958 -0.921591
4.67182 15.179 -1.01719
4.53883 15.2444 -0.646146
4.58049 15.1941 -0.931268
4.59422 15.1774 -1.02633
4.44378 15.2416 -0.661881
4.4992 15.1917 -0.944727
4.51721 15.1751 -1.03909
4.34942 15.2381 -0.682082
4.4184 15.1887 -0.962022
4.44089 15.1722 -1.05544
4.25602 15.2337 -0.706736
4.33847 15.185 -0.983175
4.36521 15.1687 -1.0755
4.29075 15.1646 -1.09887
4.25982 15.1806 -1.00785
4.1642 15.2286 -0.735597
4.2176 15.1598 -1.1258
4.18242 15.1756 -1.03628
4.07361 15.2228 -0.768813
4.14576 15.1545 -1.1561
4.10649 15.17 -1.06826
3.98477 15.2162 -0.806295
4.07542 15.1486 -1.18973
4.03214 15.1637 -1.10375
3.89806 15.2088 -0.847725
4.00684 15.142 -1.22663
3.95947 15.1568 -1.14278
3.81313 15.2008 -0.893356
3.94014 15.135 -1.2667
3.8889 15.1494 -1.1851
3.73064 15.1921 -0.942806
3.87543 15.1274 -1.30984
3.82043 15.1413 -1.23066
3.65067 15.1827 -0.996054
3.81291 15.1192 -1.35596
3.75419 15.1327 -1.27941
3.57323 15.1727 -1.05305
3.75267 15.1106 -1.40498
3.69029 15.1236 -1.33128
3.4986 15.162 -1.11365
3.69484 15.1015 -1.45676
3.62902 15.1139 -1.38604
3.42705 15.1507 -1.17764
3.63957 15.0919 -1.5112
3.57052 15.1038 -1.44354
3.35872 15.1388 -1.24484
3.58701 15.0818 -1.56815
3.51474 15.0932 -1.50383
3.2936 15.1264 -1.31531
3.53726 15.0714 -1.62751
3.46192 15.0821 -1.56671
3.2319 15.1135 -1.38877
3.49046 15.0605 -1.68915
3.41228 15.0706 -1.6319
3.17395 15.1 -1.46491
3.44668 15.0492 -1.75291
3.36575 15.0587 -1.69951
3.11961 15.0861 -1.54385
3.40601 15.0377 -1.81863
3.32264 15.0464 -1.76898
3.06926 15.0718 -1.62508
3.36861 15.0257 -1.8862
3.28286 15.0338 -1.84064
3.02276 15.057 -1.70882
3.33447 15.0135 -1.9554
3.24656 15.0208 -1.91401
2.98043 15.0419 -1.79452
3.30375 15.0011 -2.02617
3.21382 15.0076 -1.9892
2.94219 15.0264 -1.88232
3.27637 14.9883 -2.09836
3.18478 14.9941 -2.06558
2.90837 15.0107 -1.9715
2.87888 14.9947 -2.06226
3.15952 14.9804 -2.14334
3.25263 14.9754 -2.17168
2.85375 14.9784 -2.1545
3.13803 14.9665 -2.2223
3.23251 14.9623 -2.24592
2.83331 14.9621 -2.24689
3.12045 14.9525 -2.30181
3.21594 14.949 -2.32114
2.81709 14.9454 -2.34156
3.10652 14.9381 -2.38304
3.20296 14.9356 -2.39711
2.8056 14.9288 -2.43623
3.09673 14.9238 -2.46409
3.19376 14.9222 -2.47351
3.09084 14.9095 -2.54549
3.18822 14.9087 -2.55026
4.75152 15.0784 -0.99371
4.75277 14.9768 -0.975745
4.75322 14.8753 -0.957819
4.75306 14.7737 -0.939918
4.75277 14.6722 -0.922023
4.75254 14.5706 -0.904126
4.75221 14.4691 -0.886234
3.18824 14.8071 -2.53197
3.18814 14.7052 -2.51629
3.18807 14.6034 -2.49978
3.18805 14.5017 -2.48244
3.18805 14.4002 -2.46452
3.18805 14.2986 -2.4465
3.18804 14.197 -2.42886
4.72294 15.6284 -0.253697
4.37527 15.6325 -0.230222
3.75705 15.5883 -0.48083
3.67258 15.581 -0.522451
3.58988 15.5731 -0.567217
3.50898 15.5646 -0.615095
3.42985 15.5557 -0.66604
3.35276 15.5462 -0.719929
3.27795 15.5362 -0.776628
3.20555 15.5257 -0.835885
3.1357 15.5148 -0.897578
3.06864 15.5036 -0.961314
4.73358 17.846 -0.312106
4.73292 17.8443 -0.395952
4.71318 17.8479 -0.088059
4.66368 17.846 -0.062878
4.63812 17.8402 -0.407332
4.59117 17.8419 -0.058367
4.54334 17.8336 -0.416007
4.50576 17.8351 -0.058987
4.44872 17.8244 -0.421444
4.41396 17.8253 -0.060217
4.35434 17.8127 -0.424648
4.31942 17.8128 -0.061045
4.26027 17.7985 -0.427128
4.22416 17.7974 -0.061548
4.16653 17.7817 -0.429783
4.12908 17.7794 -0.061978
4.07318 17.7624 -0.432789
4.03438 17.7588 -0.06246
3.98035 17.7405 -0.436131
3.94012 17.7354 -0.06297
3.888 17.716 -0.439966
3.84658 17.7095 -0.063609
3.79633 17.6889 -0.444189
3.75364 17.6809 -0.064269
3.70544 17.6594 -0.448802
3.66146 17.6498 -0.065006
3.61539 17.6274 -0.453795
3.57017 17.6161 -0.065781
3.52626 17.593 -0.459178
3.47985 17.5798 -0.066609
3.43813 17.5561 -0.464933
3.39054 17.5411 -0.067491
3.35106 17.5168 -0.471059
3.3023 17.4999 -0.06843
3.26512 17.4752 -0.477556
3.18032 17.4312 -0.484492
3.2152 17.4562 -0.06942
3.09668 17.3849 -0.491752
3.12926 17.41 -0.070457
3.01433 17.3363 -0.49929
3.0445 17.3614 -0.071539
2.93327 17.2854 -0.507148
2.96092 17.3103 -0.072662
2.85333 17.2321 -0.515332
2.87855 17.2567 -0.073828
2.77467 17.1765 -0.523811
2.79744 17.2007 -0.07504
2.71772 17.1422 -0.076284
2.69745 17.1186 -0.53258
2.63955 17.0813 -0.077582
2.62183 17.0586 -0.541649
2.56311 17.0183 -0.078918
2.54791 16.9966 -0.551127
2.48854 16.9531 -0.080298
2.47582 16.9326 -0.561019
2.41593 16.886 -0.081711
2.40563 16.8667 -0.571085
2.34536 16.817 -0.083157
2.33748 16.7992 -0.58149
2.27688 16.7461 -0.084631
2.27142 16.73 -0.592067
2.21068 16.6736 -0.086149
2.20768 16.6595 -0.602817
