0.632991 0.253725 0.249333
0.417358 0.627997 -0.239975
0.602061 0.514257 0.499149
0.208296 0.310336 -0.680422
0.498519 0.609317 0.570848
0.678483 0.703486 0.11346
0.312754 0.112689 0.395892
0.703571 0.176158 0.145616
0.641482 0.110862 0.239598
0.516445 0.452203 -0.0898278
0.476286 0.617656 0.460057
0.463017 0.572408 -0.0870705
0.26801 0.451455 -0.777818
0.111598 0.394085 0.386948
0.703605 0.600302 0.356567
0.624162 0.452449 -0.375251
0.599538 0.118612 0.0437235
0.600882 0.515331 0.794075
0.448338 0.170773 -0.185253
0.415761 0.688372 0.32037
0.457038 0.201987 0.996867
0.32974 0.221598 0.303509
0.529424 0.594056 -0.354877
0.586146 0.42331 -0.095199
0.313257 0.607597 0.708043
0.207332 0.167051 0.0599016
0.307877 0.605359 -0.64948
0.567608 0.207441 -0.0220679
0.524383 0.558497 -0.777633
0.394196 0.668443 -0.096588
0.608117 0.504054 -0.616595
0.398016 0.185135 0.829649
0.376719 0.628831 0.437257
0.165791 0.247767 -0.185254
0.551867 0.261307 -0.776428
0.602229 0.462416 -0.777332
0.200466 0.675397 0.103567
0.703659 0.584905 -0.140028
0.241199 0.573692 -0.0235917
0.196409 0.478546 -0.514635
0.578146 0.240804 0.408628
0.666288 0.579856 0.22563
0.110933 0.196229 0.0363293
0.619462 0.472748 0.727745
0.27627 0.47414 -0.77783
0.49087 0.47979 0.999876
0.614194 0.487052 0.962875
0.112043 0.621519 0.163921
0.496979 0.552075 -0.777751
0.335035 0.196765 -0.481057
0.116861 0.117656 0.0451598
0.610205 0.6181 0.154886
0.451561 0.625091 -0.330865
0.151939 0.128246 0.406377
0.38083 0.414775 0.999892
0.184925 0.387328 -0.193462
0.24074 0.112296 0.392493
0.201721 0.492698 -0.479215
0.235195 0.26832 0.558292
0.406677 0.564095 -0.777713
0.243936 0.557631 0.917068
0.703082 0.430117 -0.108306
0.674309 0.703466 0.0449837
0.3421 0.549468 -0.777762
0.556316 0.56968 -0.759069
0.154025 0.569053 0.242875
0.360137 0.624079 0.538708
0.111617 0.677037 0.374805
0.110705 0.641868 -0.074471
0.265443 0.510882 0.289355
0.165971 0.303458 0.289133
0.407944 0.185065 -0.269578
0.364352 0.62553 0.481075
0.399716 0.650882 -0.0967108
0.127718 0.112366 0.254907
0.629103 0.401995 -0.330875
0.33601 0.616825 0.659407
0.558174 0.24305 0.679891
0.542141 0.230219 0.628293
0.163918 0.146023 -0.185142
0.187588 0.379594 -0.279876
0.522918 0.389336 -0.77781
0.173477 0.587151 0.211193
0.353159 0.192197 -0.27883
0.627026 0.375009 0.707248
0.588126 0.2775 0.63469
0.6576 0.111122 0.198538
0.379806 0.113962 -0.177106
0.198792 0.595584 0.407297
0.56749 0.560831 -0.647808
0.61872 0.341573 -0.462012
0.281244 0.58991 -0.410552
0.402377 0.500467 0.999886
0.703617 0.620921 0.334727
0.686132 0.217587 -0.184142
0.485823 0.613836 0.975341
0.299971 0.586086 0.287542
0.258351 0.111016 -0.128011
0.575942 0.660732 0.232508
0.622746 0.354018 0.570011
0.344053 0.619805 -0.238269
0.187061 0.388282 0.545525
0.680255 0.572047 -0.0139876
0.252939 0.316891 -0.0735524
0.537596 0.471053 0.307953
0.347091 0.620842 0.924154
0.613034 0.493619 -0.576776
0.308152 0.586674 0.291854
0.191767 0.45993 0.847169
0.11492 0.121633 0.301629
0.110882 0.145557 0.157616
0.140546 0.580869 -0.00732902
0.529323 0.222322 0.908502
0.241245 0.698919 -0.178666
0.333097 0.340922 -0.0850227
0.127107 0.319344 -0.0778523
0.253012 0.56695 0.579768
0.595378 0.467333 0.999817
0.450741 0.624357 -0.274602
0.22357 0.504299 -0.0705509
0.261463 0.242868 0.441055
0.539559 0.228251 -0.463586
0.193059 0.700521 0.399206
0.220297 0.527024 0.511814
0.694385 0.701297 0.200593
0.358609 0.111141 0.342735
0.138187 0.111292 -0.063501
0.250104 0.574404 0.248509
0.247405 0.13745 0.407235
0.191153 0.456833 0.444327
0.40179 0.629341 0.801019
0.655102 0.111244 0.191291
0.186441 0.415868 -0.748124
0.373604 0.368046 -0.0953648
0.122104 0.113486 0.331033
0.703658 0.145432 -0.0144317
0.688319 0.112646 0.388877
0.224163 0.281824 0.831183
0.596397 0.523273 0.890982
0.619143 0.522273 -0.0616552
0.613194 0.32402 0.576326
0.618888 0.339954 -0.290732
0.385762 0.186188 0.459504
0.111408 0.271178 0.370274
0.138118 0.60744 0.126474
0.11214 0.688644 0.19066
0.586158 0.520423 0.9967
0.664898 0.531879 0.407327
0.590303 0.280377 0.788737
0.547088 0.234957 -0.629368
0.703571 0.600515 -0.0293643
0.194077 0.351272 0.504671
0.229148 0.528553 0.277449
0.232797 0.271489 -0.757324
0.352551 0.641153 -0.0879754
0.450278 0.293068 -0.0909784
0.110938 0.666472 -0.0562728
0.614374 0.655676 0.117497
0.415498 0.703561 0.372262
0.417067 0.629222 -0.378447
0.589147 0.548363 0.262502
0.219505 0.237916 0.407387
0.549527 0.570716 0.265509
0.672064 0.404838 -0.0954416
0.279906 0.565974 0.99893
0.627118 0.379421 0.471914
0.492312 0.202938 0.722644
0.702426 0.344362 0.393035
0.359854 0.363596 -0.092506
0.186904 0.38913 -0.460992
0.187021 0.384339 -0.294625
0.247154 0.672333 -0.185181
0.623589 0.356382 0.675997
0.402263 0.366594 0.318138
0.111467 0.305649 0.360926
0.679649 0.111384 0.118351
0.110995 0.519484 -0.130458
0.539511 0.298526 -0.0645047
0.620512 0.192016 -0.185247
0.404836 0.186191 0.592086
0.19809 0.329692 0.667085
0.329516 0.199764 0.485892
0.624193 0.361124 -0.424156
0.22558 0.27989 0.62054
0.574056 0.260608 -0.482813
0.188584 0.44354 0.537696
0.205864 0.163992 0.157123
0.619326 0.591323 0.20416
0.110754 0.572396 0.356051
0.244607 0.558598 0.743082
0.388118 0.184885 0.318207
0.189526 0.568483 -0.185304
0.303591 0.250808 0.287106
0.627412 0.433339 -0.371193
0.270821 0.21732 0.408215
0.548858 0.57744 -0.628377
0.700864 0.378882 -0.100241
0.530865 0.222773 -0.626267
0.480514 0.653493 0.407328
0.489352 0.614381 -0.426137
0.289569 0.595624 -0.496267
0.285791 0.605638 -0.0565117
0.23296 0.272945 0.47176
0.38192 0.457895 -0.777792
0.278167 0.703665 -0.123038
0.186216 0.398575 -0.282876
0.460667 0.622479 0.480515
0.51898 0.214896 0.533159
0.647592 0.50405 0.407406
0.703606 0.590532 0.266885
0.111441 0.417242 -0.123622
0.58078 0.48572 -0.080586
0.111188 0.173712 -0.106899
0.471874 0.462089 -0.0908497
0.703651 0.587134 -0.117769
0.24876 0.543437 -0.776633
0.615676 0.486568 -0.58767
0.461872 0.553546 0.30981
0.695694 0.112583 0.367762
0.592565 0.28557 -0.54489
0.15726 0.110974 0.367541
0.385354 0.660021 0.317331
0.422798 0.64526 0.407442
0.593343 0.703579 -0.104518
0.399304 0.52277 -0.095491
0.297758 0.6663 -0.0638701
0.576911 0.550736 -0.661205
0.327571 0.511543 -0.777799
0.226044 0.2592 -0.0347057
0.111245 0.451679 -0.144315
0.552115 0.239023 -0.287814
0.314561 0.205345 0.775842
0.183844 0.252178 0.407334
0.628336 0.424997 -0.72388
0.263185 0.57585 -0.330804
0.613507 0.419958 0.999235
0.535889 0.146005 0.273546
0.599313 0.519283 -0.66915
0.515272 0.213101 -0.604673
0.406196 0.149401 0.317273
0.669839 0.388332 0.316344
0.469419 0.668435 -0.185317
0.315372 0.609552 -0.431765
0.328022 0.200306 0.636623
0.525662 0.595059 0.68521
0.312615 0.696323 -0.0761274
0.197353 0.33462 -0.315697
0.492827 0.281837 0.301832
0.473057 0.619282 0.757668
0.609003 0.313245 0.794609
0.35036 0.621615 -0.212158
0.168253 0.388568 -0.18533
0.607754 0.111305 0.238284
0.703488 0.276229 0.30546
0.584749 0.272258 0.738185
0.275755 0.54737 0.278417
0.111077 0.678814 0.242733
0.703365 0.269547 -0.0734478
0.284618 0.593859 -0.213107
0.465583 0.193755 -0.543653
0.376736 0.420994 0.999891
0.11069 0.217006 0.298152
0.312368 0.703663 -0.12009
0.25131 0.565231 0.645241
0.356818 0.111139 0.366041
0.663756 0.487533 0.302042
0.586043 0.540313 -0.613122
0.679302 0.435839 -0.0929333
0.581602 0.486026 0.999846
0.530514 0.222357 -0.348332
0.492336 0.396196 -0.0937951
0.370991 0.626111 -0.682808
0.188866 0.447678 -0.57233
0.264386 0.536528 0.276343
0.110781 0.568416 -0.11456
0.335899 0.498507 0.999891
0.214142 0.648071 0.185039
0.618756 0.475026 0.896942
0.686001 0.311871 -0.184288
0.564049 0.384517 0.999871
0.189744 0.363667 -0.211498
0.254928 0.302175 -0.0661498
0.200461 0.325303 -0.401066
0.619897 0.200255 0.407328
0.404527 0.629315 -0.368892
0.286724 0.643177 0.278748
0.38 0.266117 -0.0940848
0.428099 0.325733 0.31636
0.5396 0.458569 0.312104
0.547609 0.578642 -0.489908
0.560175 0.130572 -0.184684
0.215133 0.113294 0.00266153
0.611579 0.307287 -0.190212
0.304131 0.210284 0.645544
0.257785 0.466517 -0.77784
0.546658 0.70359 -0.130742
0.307906 0.208366 0.894978
0.614078 0.32645 0.931085
0.173406 0.111074 -0.136537
0.298949 0.600434 -0.703068
0.556248 0.331346 0.999876
0.112377 0.12958 0.353702
0.397109 0.628747 0.675632
0.297658 0.637664 0.285897
0.610318 0.553287 0.407384
0.257102 0.570574 0.851877
0.6341 0.297759 -0.185453
0.516263 0.600478 -0.497797
0.242521 0.54793 -0.0421289
0.593657 0.196866 0.200763
0.398589 0.63011 -0.730421
0.325779 0.613028 0.5284
0.439413 0.271543 -0.0933417
0.361905 0.254081 -0.77776
0.587284 0.537159 0.604294
0.427783 0.492319 0.31791
0.236593 0.266307 0.576972
0.199475 0.486 0.848977
0.371841 0.378357 -0.777782
0.166274 0.540262 -0.0487119
0.125285 0.350564 -0.184078
0.175377 0.558074 -0.185286
0.319334 0.644203 -0.0752189
0.354439 0.622608 0.946413
0.132805 0.703088 0.0767415
0.110477 0.660449 0.126905
0.703637 0.357858 0.360872
0.290335 0.596044 -0.447888
0.641228 0.703577 -0.0310049
0.496981 0.114041 0.304413
0.199111 0.3315 -0.255503
0.198361 0.482448 0.534109
0.41487 0.468798 0.999884
0.186139 0.406276 -0.271551
0.618053 0.478862 -0.491261
0.224718 0.283921 0.952269
0.590026 0.682156 0.20931
0.686406 0.421142 0.406908
0.255972 0.569107 -0.496657
0.196855 0.466014 -0.768739
0.219874 0.525394 -0.711592
0.660312 0.703567 -0.0740442
0.53047 0.601878 0.276951
0.568581 0.703584 0.331043
0.239612 0.553278 0.80589
0.573671 0.110898 -0.0362642
0.407902 0.18483 -0.306553
0.582049 0.110711 0.343174
0.47604 0.196611 0.861757
0.593034 0.287679 0.975169
0.33409 0.445723 0.318774
0.336278 0.63621 0.407863
0.610403 0.496438 0.674471
0.703608 0.648498 0.369349
0.110741 0.64099 0.139312
0.41766 0.185298 -0.201833
0.27153 0.125322 -0.0497318
0.427724 0.186368 -0.552343
0.267085 0.579155 0.567131
0.200659 0.491497 -0.200289
0.5715 0.556245 -0.495777
0.510184 0.211095 -0.713263
0.601456 0.645831 0.181204
0.197231 0.332374 0.658941
0.357105 0.354972 0.312416
0.406116 0.7036 -0.131136
0.296062 0.449378 0.999891
0.32565 0.201624 0.454167
0.128215 0.111938 0.00734431
0.294081 0.170781 -0.185285
0.309497 0.111085 -0.142171
0.247436 0.253201 -0.393742
0.688198 0.110786 0.0057709
0.447144 0.129354 0.312864
0.111102 0.223879 -0.0831496
0.670009 0.431013 -0.185179
0.396176 0.299926 0.999881
0.683902 0.269503 -0.044955
0.21579 0.703654 -0.108025
0.248339 0.251057 -0.565861
0.669262 0.221337 0.0210056
0.328259 0.19949 -0.569156
0.321417 0.611448 0.79311
0.444261 0.703562 0.365571
0.21195 0.332647 0.998344
0.122451 0.501452 -0.0737866
0.597587 0.645126 0.191219
0.568552 0.427796 0.999875
0.11124 0.26438 -0.0702778
0.630375 0.475682 0.306492
0.157023 0.334967 0.407363
0.111216 0.198878 0.0641725
0.481815 0.231253 -0.777712
0.125358 0.462482 -0.088733
0.556255 0.127436 0.257349
0.62925 0.432024 -0.198409
0.555952 0.301161 -0.777711
0.445792 0.188803 0.883596
0.236768 0.548405 -0.668521
0.571639 0.256845 0.656086
0.312064 0.206421 -0.543495
0.622271 0.111912 0.205545
0.565587 0.58086 0.24909
0.314589 0.431127 -0.0940802
0.600312 0.299201 -0.424844
0.188192 0.365831 0.710743
0.25976 0.240428 -0.541569
0.214621 0.517967 -0.462663
0.703592 0.512716 0.348373
0.546816 0.577629 -0.196993
0.270882 0.353394 -0.777765
0.35744 0.325837 -0.0903609
0.500157 0.205442 -0.619689
0.350901 0.193334 -0.690254
0.208402 0.614144 0.174056
0.213502 0.516815 0.741667
0.286099 0.220689 0.621494
0.571246 0.256957 0.578782
0.588196 0.281208 0.465298
0.111822 0.649145 -0.168921
0.14434 0.205656 0.0811544
0.465914 0.192257 0.459867
0.153509 0.111079 -0.0924278
0.257232 0.489081 -0.777868
0.414101 0.701374 0.330061
0.385374 0.565463 0.315965
0.355294 0.210742 0.313751
0.328921 0.199851 0.493765
0.208095 0.614563 0.0418368
0.20976 0.304529 -0.367736
0.134401 0.11161 0.0507441
0.301576 0.608156 -0.193829
0.628932 0.418515 -0.536514
0.216162 0.29717 -0.252106
0.194671 0.703662 0.302593
0.233232 0.544373 -0.470852
0.228834 0.279007 0.457389
0.5946 0.525839 0.973526
0.599234 0.691932 -0.182647
0.703495 0.676827 0.163288
0.200207 0.324939 0.641157
0.69879 0.51064 0.402546
0.190291 0.373018 0.478628
0.197766 0.332058 0.8978
0.110526 0.183846 0.213252
0.60698 0.35432 0.998488
0.628972 0.420376 -0.490819
0.367529 0.625903 0.887239
0.498312 0.546936 -0.0740565
0.680399 0.60368 0.0447444
0.506145 0.208698 -0.453721
0.113079 0.426684 0.396171
0.667188 0.576303 -0.185235
0.444362 0.187874 0.439844
0.313053 0.608969 -0.325015
0.504516 0.207928 -0.323406
0.110963 0.19197 0.340021
0.424024 0.51851 -0.0945943
0.601847 0.29957 0.623035
0.579436 0.487204 0.300314
0.358182 0.344826 0.311515
0.5607 0.245794 0.638414
0.19185 0.354924 -0.218699
0.507883 0.209134 -0.545103
0.436486 0.611266 0.999212
0.204796 0.323927 0.443776
0.110596 0.66325 0.0279241
0.504398 0.607895 -0.406536
0.60885 0.31618 -0.512491
0.197106 0.478727 -0.275018
0.476052 0.196112 -0.732929
0.398497 0.456996 0.32066
0.540679 0.430659 -0.777844
0.453103 0.422385 -0.0947734
0.114952 0.321906 -0.088962
0.264943 0.257628 0.999566
0.562105 0.247645 -0.493762
0.498113 0.610783 -0.412994
0.463746 0.621956 0.788333
0.325851 0.674591 -0.0783439
0.451671 0.111028 -0.133702
0.436565 0.627357 0.552982
0.111755 0.453797 -0.166527
0.380251 0.627965 0.899205
0.509855 0.603967 0.602735
0.528984 0.276258 0.283584
0.185603 0.408937 -0.701164
0.593443 0.287397 -0.455918
0.660028 0.381761 0.407338
0.110668 0.434117 0.345719
0.235156 0.651395 0.225853
0.324562 0.131055 -0.0796398
0.270458 0.581723 -0.533934
0.504966 0.349534 -0.777789
0.517602 0.214616 -0.282133
0.112401 0.124498 0.219808
0.190323 0.455068 -0.418315
0.417712 0.703584 -0.154598
0.375797 0.626518 0.611473
0.703617 0.592257 0.322615
0.665202 0.537977 0.271206
0.191121 0.215257 0.183934
0.110629 0.623727 0.318962
0.231761 0.542352 -0.642806
0.542177 0.231629 -0.685737
0.391259 0.628006 -0.597153
0.111111 0.671412 -0.109728
0.440897 0.626308 -0.496656
0.203264 0.559035 -0.185367
0.626619 0.439729 0.428862
0.62789 0.433853 0.639697
0.408139 0.126623 0.317614
0.387743 0.628557 0.546181
0.64922 0.303525 0.407318
0.111439 0.351592 -0.130804
0.465017 0.621215 0.460818
0.110565 0.599219 0.304835
0.234812 0.266655 -0.649107
0.29061 0.218148 0.880202
0.111013 0.219349 -0.0501614
0.66384 0.404747 -0.184377
0.667656 0.169418 -0.185215
0.11242 0.388214 -0.171371
0.435485 0.228737 -0.0941448
0.243458 0.664542 -0.0179238
0.247088 0.560182 -0.501279
0.703616 0.163476 0.353572
0.11617 0.330184 -0.178503
0.236237 0.546826 -0.262608
0.39254 0.184949 -0.308561
0.620373 0.703616 0.347632
0.278725 0.227297 0.932331
0.281326 0.58999 -0.728746
0.555754 0.567582 0.261842
0.459866 0.192255 -0.510755
0.598554 0.295718 -0.517629
0.525336 0.590965 -0.214355
0.207986 0.505993 0.701119
0.622139 0.461658 0.539597
0.34747 0.273875 -0.777762
0.60123 0.298342 0.631092
0.264151 0.576635 -0.364499
0.365858 0.42581 0.999891
0.110798 0.231924 0.300197
0.229277 0.540717 0.688315
0.271304 0.266515 -0.777657
0.210045 0.510858 -0.199235
0.130134 0.152799 0.406377
0.415227 0.566148 0.317354
0.195735 0.347146 0.474915
0.111083 0.539949 -0.149164
0.474598 0.195926 0.888123
0.580309 0.545582 -0.702902
0.340949 0.618176 0.972686
0.633356 0.116389 0.400765
0.360112 0.593134 0.999856
0.29343 0.216626 -0.463465
0.355865 0.191409 0.775745
0.453459 0.191034 -0.75712
0.205322 0.701238 0.39741
0.26087 0.219433 0.250912
0.61907 0.689133 0.406481
0.232536 0.273674 0.944387
0.185131 0.400658 0.805993
0.641337 0.382056 -0.185783
0.110616 0.57305 0.340323
0.457222 0.191435 -0.581327
0.545842 0.703369 -0.159619
0.227359 0.188325 -0.185265
0.261532 0.189668 -0.0318157
0.110584 0.469904 0.363352
0.385827 0.426314 0.999891
0.202966 0.585398 0.214748
0.186965 0.394359 0.507249
0.545999 0.532006 0.280363
0.698694 0.623874 0.400752
0.564121 0.564301 0.61609
0.200461 0.325443 -0.386287
0.520812 0.216471 -0.272386
0.619257 0.473226 0.684134
0.665226 0.206047 0.0578032
0.224923 0.530967 0.983204
0.540426 0.228999 0.580366
0.415155 0.185633 -0.241854
0.348853 0.195698 0.989737
0.508799 0.60053 -0.212362
0.361402 0.189391 0.856226
0.588141 0.287924 0.280257
0.410773 0.57162 0.317406
0.168574 0.202848 0.0680399
0.602292 0.305248 0.456644
0.11143 0.333061 0.365242
0.608424 0.169759 0.0687617
0.27846 0.596667 -0.192082
0.187229 0.385365 -0.429886
0.702228 0.618499 0.165016
0.627668 0.386074 -0.232812
0.504298 0.606376 -0.727895
0.285159 0.703632 -0.0934698
0.204106 0.648443 0.0698657
0.111274 0.20074 -0.137008
0.110654 0.636107 0.310712
0.703637 0.172279 0.00191169
0.258061 0.322363 0.296879
0.187423 0.438142 -0.529273
0.623538 0.703575 -0.0654541
0.703624 0.440097 0.361941
0.251105 0.564418 -0.454375
0.535621 0.226782 -0.68826
0.703137 0.599321 0.228032
0.536209 0.587956 -0.445629
0.111099 0.209138 0.349276
0.141542 0.588852 0.206695
0.191047 0.523597 -0.185777
0.572691 0.601342 0.407345
0.603396 0.301712 0.685537
0.111334 0.295215 -0.120483
0.209674 0.510028 0.645407
0.587506 0.651314 0.00815493
0.625524 0.449544 -0.472628
0.688127 0.677161 -0.183943
0.291077 0.220394 0.450286
0.376349 0.635015 0.410428
0.199708 0.337178 0.439196
0.121903 0.701652 -0.00859064
0.344655 0.385312 0.999888
0.562651 0.565461 0.907107
0.150892 0.11123 0.090933
0.150096 0.421329 0.317444
0.208561 0.506535 0.536698
0.306685 0.209075 -0.586814
0.703624 0.649938 0.0869202
0.628582 0.414372 0.473002
0.130991 0.427892 0.406869
0.245139 0.28213 -0.77709
0.355736 0.590584 0.310006
0.196193 0.333486 0.718047
0.497398 0.204793 -0.236538
0.459723 0.703551 0.355307
0.272123 0.22069 -0.186739
0.587698 0.278319 -0.357574
0.220332 0.249351 0.40749
0.111193 0.465598 -0.139568
0.186727 0.703142 0.158007
0.442363 0.369568 -0.777786
0.703466 0.254784 -0.149156
0.559208 0.246957 0.932103
0.186287 0.386827 -0.699548
0.566339 0.561982 -0.536259
0.417981 0.629077 0.568626
0.611022 0.496957 -0.483053
0.274784 0.230254 0.513233
0.7027 0.356491 0.323869
0.370149 0.528961 -0.77777
0.598894 0.519483 0.574851
0.614136 0.325606 0.828128
0.703519 0.551954 -0.0738824
0.45948 0.703614 -0.138634
0.168132 0.111214 0.21718
0.596703 0.685166 -0.184145
0.198532 0.158677 0.116179
0.519406 0.215708 0.84702
0.328688 0.170046 -0.0800649
0.703634 0.469167 -0.147346
0.703636 0.63884 0.0268468
0.1888 0.382145 0.428062
0.623861 0.457057 -0.676574
0.202214 0.547363 0.264693
0.635323 0.703616 0.355223
0.51975 0.110823 0.368315
0.264422 0.576999 0.579829
0.613264 0.702615 0.166814
0.245821 0.559811 0.487496
0.369511 0.187691 -0.540448
0.428949 0.33632 -0.0941706
0.195014 0.346942 0.515086
0.605833 0.154479 0.152121
0.600483 0.597464 0.0213352
0.335089 0.616978 0.841759
0.152578 0.417693 -0.0956145
0.375833 0.606087 -0.0933228
0.192909 0.349508 0.9143
0.620049 0.622637 0.407321
0.321389 0.609193 -0.0762261
0.191139 0.457911 -0.34706
0.214003 0.299992 -0.266524
0.185916 0.383211 0.806472
0.565871 0.561945 0.829853
0.15706 0.129002 -0.184189
0.185882 0.402818 0.555004
0.247635 0.252458 -0.667111
0.612782 0.493188 -0.62689
0.277341 0.58677 0.536137
0.625196 0.36587 -0.456451
0.110832 0.627307 -0.10827
0.629615 0.277744 0.273157
0.388697 0.628628 0.821864
0.703242 0.507117 0.389683
0.598545 0.520016 -0.690276
0.394382 0.185144 0.83696
0.59887 0.602496 0.190654
0.589849 0.530848 -0.294146
0.628052 0.429014 -0.693131
0.184019 0.613432 0.145296
0.62423 0.360436 -0.238763
0.230699 0.540477 -0.335994
0.132002 0.288189 0.281829
0.425049 0.266406 -0.0949316
0.114646 0.695664 0.0650556
0.145384 0.566262 -0.025839
0.69448 0.110989 0.0587707
0.579603 0.652468 -0.185292
0.494207 0.203225 0.573143
0.329717 0.199306 0.537184
0.344609 0.619621 -0.648423
0.297446 0.214724 -0.0626441
0.46382 0.193597 0.770212
0.3949 0.340163 0.317174
0.112274 0.583467 0.263175
0.507571 0.544657 0.291795
0.515629 0.213057 -0.532302
0.255521 0.568524 -0.263127
0.395759 0.628748 -0.671043
0.633113 0.703598 0.0582438
0.219333 0.525303 0.885087
0.587333 0.534627 -0.347247
0.421111 0.628069 -0.600047
0.27013 0.480078 0.999889
0.409934 0.628082 -0.228418
0.299021 0.600533 0.437947
0.627745 0.434995 0.624254
0.305109 0.603638 0.447755
0.264249 0.237163 0.743337
0.536842 0.110866 -0.0672393
0.703664 0.519793 -0.120477
0.320477 0.203417 -0.668044
0.260994 0.574597 -0.205842
0.460257 0.622395 -0.635995
0.256789 0.634908 0.252219
0.110517 0.660307 0.209535
0.473554 0.619924 0.419175
0.607493 0.246409 -0.0188195
0.505973 0.114507 0.400009
0.112201 0.592997 0.39035
0.413254 0.644363 0.318187
0.235131 0.546138 -0.338074
0.478646 0.616784 -0.644953
0.572364 0.555539 0.664378
0.62925 0.407636 0.547418
0.360616 0.624866 0.467519
0.628187 0.428247 -0.553621
0.579759 0.546456 0.886437
0.190346 0.454913 -0.372273
0.621614 0.463315 0.527906
0.378201 0.188337 0.614497
0.111302 0.682005 0.135724
0.122746 0.54156 0.403569
0.276631 0.675894 -0.185098
0.603107 0.511538 0.820744
0.480779 0.585055 -0.777589
0.433797 0.618137 0.998034
0.444125 0.62609 -0.300496
0.492057 0.427595 0.318146
0.4416 0.324367 0.314566
0.603323 0.70364 0.300309
0.33141 0.394666 -0.0956315
0.60395 0.510519 0.533066
0.193527 0.344604 0.627392
0.200732 0.324995 -0.482656
0.416501 0.530704 0.317425
0.616749 0.618704 0.136265
0.338368 0.538131 0.999893
0.580997 0.268931 -0.391964
0.647162 0.597536 0.0315909
0.590751 0.414609 -0.777837
0.524641 0.596963 -0.301086
0.608193 0.501508 0.86424
0.191099 0.458445 -0.363876
0.487502 0.61366 0.958285
0.599703 0.670184 0.0308702
0.149355 0.341338 -0.18522
0.58691 0.181057 0.00715307
0.204007 0.316377 0.861994
0.480898 0.616235 -0.718759
0.199827 0.117316 0.147537
0.467161 0.192139 0.441404
0.703466 0.637502 -0.160044
0.609348 0.500195 -0.4592
0.57361 0.552884 -0.217105
0.661806 0.595814 0.197452
0.274352 0.664522 -0.185222
0.230234 0.54086 0.448214
0.3423 0.195772 0.693433
0.631898 0.484318 0.302937
0.414088 0.621372 0.996773
0.541872 0.230164 0.818615
0.269323 0.585453 0.266226
0.500118 0.305267 -0.0746784
0.29384 0.219961 0.988098
0.506262 0.111231 -0.152991
0.256868 0.570578 0.496347
0.443492 0.305398 0.999899
0.273057 0.6474 0.268279
0.651513 0.545824 -0.185404
0.703407 0.206286 -0.154901
0.141635 0.512189 -0.0668711
0.616419 0.337276 0.440059
0.325215 0.247863 0.300118
0.688293 0.701914 -0.166778
0.225436 0.534984 0.545558
0.11075 0.179275 0.0892527
0.543418 0.231545 -0.577579
0.357518 0.504856 0.999891
0.703536 0.113381 0.132164
0.501666 0.632041 0.407448
0.481402 0.303199 0.9999
0.210836 0.511386 -0.396378
0.175138 0.656123 -0.185232
0.551994 0.57493 -0.613297
0.142597 0.703563 -0.0670371
0.263646 0.576315 -0.297414
0.632022 0.341381 -0.186323
0.584725 0.333598 -0.777657
0.199291 0.155631 0.108919
0.428214 0.435259 -0.0961445
0.396344 0.263707 -0.777768
0.674334 0.703509 0.306178
0.280697 0.409067 0.999874
0.118244 0.134012 -0.179104
0.27817 0.524719 -0.0641082
0.250928 0.435891 -0.777807
0.313969 0.609286 -0.363332
0.270764 0.595813 -0.0442174
0.668778 0.582998 0.220931
0.605117 0.156352 0.0627191
0.600879 0.305624 0.987612
0.703638 0.662932 0.11859
0.703099 0.514087 -0.167067
0.537144 0.225289 0.444593
0.381171 0.186777 -0.628145
0.160481 0.111161 0.220748
0.690774 0.372188 0.406337
0.274962 0.585719 -0.341261
0.520015 0.217185 0.945846
0.278251 0.587247 0.732818
0.566668 0.561593 -0.258237
0.275047 0.703662 -0.129688
0.703619 0.552124 -0.0953729
0.608324 0.645527 0.0613302
0.233443 0.268792 0.729895
0.676405 0.111439 0.129542
0.163515 0.201941 0.112469
0.164781 0.590186 0.0163358
0.452486 0.449295 -0.0937417
0.535554 0.17745 0.40739
0.314468 0.703616 -0.148566
0.187991 0.441084 -0.42406
0.44958 0.190014 0.653937
0.217408 0.262819 -0.0364928
0.572899 0.258128 0.673745
0.342653 0.6196 -0.496991
0.511795 0.485812 0.999875
0.202642 0.495073 -0.525191
0.485243 0.231923 -0.0815108
0.214744 0.300272 -0.229055
0.219698 0.525782 -0.622642
0.593163 0.287071 -0.431346
0.339405 0.182664 -0.186379
0.324259 0.111088 -0.109446
0.480424 0.200278 -0.767084
0.531577 0.359448 -0.0898322
0.209484 0.551023 -0.0364106
0.506238 0.208875 0.74674
0.703603 0.424953 0.34778
0.613186 0.492542 -0.614817
0.703673 0.468811 -0.139319
0.173396 0.646388 -0.185234
0.281085 0.465293 -0.777821
0.143334 0.311828 0.407214
0.4049 0.185622 0.698019
0.512896 0.412838 -0.0942443
0.418426 0.185111 -0.421233
0.702892 0.438843 0.392715
0.189114 0.36702 -0.698882
0.166732 0.595665 0.407294
0.110513 0.51921 0.348567
0.319222 0.203077 -0.506035
0.565075 0.563295 -0.575326
0.267721 0.238223 -0.210449
0.574415 0.548991 0.264125
0.357409 0.190095 -0.370529
0.594933 0.289206 -0.321171
0.70285 0.551025 -0.0571929
0.377498 0.187064 -0.613789
0.478 0.453 0.316125
0.234485 0.268972 -0.327081
0.110841 0.675126 0.191743
0.122384 0.552949 -0.0406308
0.110499 0.454397 0.353424
0.55827 0.244342 0.868465
0.113307 0.427696 -0.10798
0.241554 0.398225 -0.777769
0.560581 0.56673 0.447607
0.444961 0.703554 0.35702
0.435523 0.626825 -0.597446
0.549805 0.2367 -0.337928
0.46168 0.15456 0.407343
0.577993 0.548556 0.866215
0.360272 0.367449 0.999888
0.493191 0.203179 0.746867
0.532773 0.586124 -0.213128
0.477589 0.342756 0.999892
0.257544 0.570632 -0.468049
0.400068 0.422533 0.322121
0.119442 0.323251 -0.0830572
0.196026 0.167299 0.117162
0.564147 0.564372 0.554903
0.646391 0.137308 -0.185029
0.1722 0.333178 0.407491
0.415799 0.18485 -0.407195
0.26979 0.235569 0.451725
0.161486 0.187389 0.40733
0.131335 0.259715 -0.0337553
0.425516 0.628478 0.751704
0.393607 0.629858 0.476191
0.330528 0.615984 -0.432477
0.111678 0.224207 0.00917332
0.701842 0.147091 0.397834
0.270487 0.581638 0.628363
0.57488 0.568097 0.410263
0.664124 0.115442 -0.17898
0.291585 0.539991 0.289008
0.361564 0.623906 -0.595138
0.247897 0.25235 -0.678333
0.407027 0.18466 -0.45172
0.431228 0.64489 -0.0951259
0.586734 0.539005 0.426079
0.11972 0.695924 0.398382
0.417091 0.628236 -0.556467
0.156486 0.111179 -0.151535
0.19573 0.341557 -0.217802
0.345695 0.144434 0.407266
0.392537 0.629745 -0.725126
0.439366 0.627181 0.860886
0.619994 0.472618 -0.551619
0.235352 0.266839 0.765979
0.281441 0.228025 -0.223992
0.280529 0.226477 0.490904
0.437262 0.627174 -0.448908
0.590936 0.215109 0.211223
0.430108 0.186992 0.711121
0.280797 0.589004 0.741141
0.496857 0.11109 -0.144311
0.189514 0.448981 0.504398
0.351106 0.312934 0.308801
0.220822 0.286128 0.660525
0.343688 0.195348 -0.267908
0.538488 0.299891 -0.777775
0.41489 0.33937 0.317211
0.403425 0.185543 0.904719
0.634493 0.561482 -0.0262261
0.500698 0.2886 0.299082
0.584092 0.573892 0.237412
0.309454 0.21047 -0.197581
0.617962 0.348526 0.990527
0.592377 0.414406 0.318414
0.395492 0.18505 0.318578
0.339549 0.328245 0.999868
0.588421 0.278604 0.585009
0.185803 0.404195 -0.557535
0.240113 0.259841 -0.536704
0.234624 0.324494 -0.777703
0.315207 0.609541 -0.509303
0.221963 0.528818 -0.357024
0.336113 0.197498 0.61074
0.454976 0.309246 0.312349
0.210914 0.546831 0.264853
0.511674 0.415444 -0.77782
0.613102 0.695212 0.09194
0.196934 0.644037 0.088557
0.541357 0.330292 -0.777782
0.626722 0.565561 -0.185481
0.550454 0.367573 0.999873
0.648042 0.112991 0.101497
0.452985 0.641525 0.31272
0.402663 0.187075 -0.745269
0.455834 0.125039 -0.0896661
0.588636 0.535553 0.526698
0.538582 0.228302 -0.251191
0.204171 0.698751 0.169657
0.606545 0.507774 -0.59918
0.330108 0.702228 0.393762
0.301401 0.601573 0.606764
0.567064 0.560883 -0.32253
0.453945 0.190694 -0.594899
0.221354 0.528994 0.277416
0.703643 0.610211 0.265868
0.703647 0.653059 0.0408229
0.127768 0.586231 0.213467
0.355483 0.623337 -0.33236
0.315462 0.223196 0.295573
0.256847 0.244224 -0.399835
0.246891 0.305559 -0.067633
0.186068 0.405556 0.530765
0.194997 0.472554 0.633043
0.212077 0.112155 0.391856
0.353869 0.190814 -0.471298
0.424289 0.186171 0.46684
0.216639 0.29309 0.628286
0.703615 0.448087 0.352928
0.571402 0.234918 -0.186487
0.272983 0.587775 -0.197314
0.342399 0.194587 -0.369738
0.235239 0.696957 0.403416
0.701234 0.69241 0.395904
0.600083 0.51887 -0.496848
0.111152 0.561209 -0.153504
0.18509 0.409089 0.784288
0.592519 0.167124 0.0199533
0.430838 0.62815 0.547542
0.567656 0.68191 -0.0220964
0.311071 0.60755 -0.426411
0.476423 0.618192 0.786716
0.535008 0.588645 0.8977
0.607066 0.309835 0.893425
0.703388 0.225951 -0.0280917
0.386041 0.627964 0.71457
0.682424 0.703262 0.0273914
0.626309 0.370443 0.835211
0.464834 0.621457 -0.739112
0.627503 0.436584 0.705488
0.283509 0.339305 -0.777763
0.396467 0.18578 -0.64746
0.595908 0.290587 0.928395
0.611445 0.483019 0.993501
0.164229 0.238798 0.229368
0.128992 0.111719 -0.148665
0.700318 0.115152 0.295034
0.577653 0.195718 0.228023
0.424931 0.423643 0.321103
0.367205 0.625629 -0.301257
0.175566 0.382324 0.408481
0.614302 0.190086 0.151566
0.110579 0.63221 0.236858
0.292125 0.35888 0.311915
0.182247 0.703625 0.353474
0.162619 0.111065 0.376941
0.24531 0.462906 -0.777848
0.686486 0.22159 0.0225937
0.241396 0.260109 -0.365439
0.522559 0.68379 -0.0618037
0.703616 0.155253 0.250074
0.692266 0.114337 -0.172284
0.55375 0.27587 -0.777362
0.165141 0.466525 -0.0862914
0.494235 0.519822 -0.777808
0.216377 0.52213 0.623177
0.537235 0.566191 -0.776319
0.688677 0.347199 -0.184139
0.447264 0.191862 -0.766987
0.186037 0.420733 -0.641512
0.628435 0.397525 -0.743802
0.584136 0.579396 0.232591
0.302108 0.488799 0.999891
0.300135 0.601021 0.524886
0.364703 0.685931 0.315982
0.110577 0.157182 0.227797
0.243603 0.257786 0.818344
0.401281 0.702387 -0.174382
0.308303 0.242046 -0.777765
0.682271 0.320606 0.40715
0.111248 0.16058 -0.131228
0.703615 0.655212 0.308933
0.7036 0.119613 0.209268
0.615882 0.703544 -0.148105
0.236074 0.548678 0.886095
0.36873 0.52067 0.999891
0.446368 0.639734 0.314121
0.228118 0.581568 0.225568
0.111643 0.683559 0.320102
0.190161 0.362206 -0.331255
0.218227 0.523569 -0.478992
0.265842 0.407238 -0.777783
0.277502 0.586763 0.561422
0.111023 0.15469 0.00369386
0.507667 0.604654 -0.255268
0.543788 0.586683 -0.0432914
0.197257 0.478501 0.927234
0.703646 0.306079 0.345401
0.357906 0.190771 -0.625025
0.388727 0.628846 0.881818
0.657205 0.110817 0.283422
0.377856 0.111192 -0.130305
0.551403 0.63056 -0.0352203
0.11338 0.356951 0.397083
0.439886 0.414557 -0.0955016
0.543561 0.231192 0.765686
0.491063 0.612675 0.879078
0.196102 0.475975 0.767007
0.19521 0.350886 0.431754
0.547004 0.234113 -0.394076
0.608887 0.637671 0.0650831
0.649795 0.685668 -0.184148
0.506229 0.607042 -0.393635
0.45262 0.190905 0.785982
0.372432 0.626774 -0.435011
0.627411 0.38377 -0.721893
0.226809 0.277496 -0.650042
0.574461 0.642434 0.234018
0.324137 0.50815 -0.0812446
0.469833 0.194762 -0.435878
0.28049 0.225298 0.889183
0.366908 0.564193 -0.0911631
0.585834 0.274844 0.599925
0.219787 0.207905 -0.185267
0.565403 0.561897 -0.413005
0.25319 0.228306 -0.0303941
0.427299 0.113113 0.398692
0.402399 0.628737 -0.649385
0.111362 0.147021 0.374927
0.698415 0.697692 0.0386115
0.290363 0.595313 0.488871
0.309495 0.60658 0.426104
0.326137 0.200814 0.738704
0.110587 0.54328 0.327953
0.628863 0.404763 0.429304
0.478583 0.331904 0.999896
0.581524 0.68197 -0.184696
0.259001 0.572295 0.682791
0.161667 0.451965 0.31242
0.640649 0.31829 -0.185394
0.607021 0.642947 0.162887
0.242835 0.261391 0.458154
0.111287 0.429398 0.385883
0.491258 0.33773 0.99989
0.629126 0.403967 -0.323265
0.111494 0.132015 -0.12397
0.703633 0.592007 -0.152455
0.612923 0.565818 0.242592
0.47717 0.617726 0.618217
0.40473 0.185404 0.886472
0.352737 0.622338 -0.484803
0.162359 0.111186 0.21219
0.281746 0.207039 -0.185879
0.631045 0.368854 0.31414
0.47497 0.110904 0.374149
0.417793 0.323476 -0.777784
0.463905 0.48973 0.99988
0.192424 0.346357 0.691025
0.269718 0.581601 -0.285958
0.683007 0.702938 -0.158512
0.622447 0.355514 -0.622731
0.582912 0.110787 -0.0381911
0.207835 0.508997 0.416299
0.585192 0.424676 0.999877
0.559908 0.62327 -0.0268393
0.383966 0.186052 0.442986
0.110984 0.191901 -0.0480714
0.479059 0.197885 -0.291504
0.288849 0.470677 -0.777819
0.453084 0.19543 0.311901
0.312248 0.478487 0.309469
0.612646 0.608922 0.0507693
0.374023 0.369706 -0.777781
0.623078 0.455252 -0.30086
0.602806 0.303779 -0.420076
0.526369 0.594595 0.959106
0.195283 0.473004 0.780324
0.567245 0.110887 -0.0939079
0.462421 0.346026 -0.777784
0.272613 0.231436 0.890234
0.628735 0.286413 -0.057775
0.29529 0.598884 -0.596547
0.495049 0.203246 -0.648928
0.110616 0.172532 0.132785
0.196912 0.335436 -0.378426
0.475073 0.195342 0.51843
0.602313 0.120305 0.0520475
0.252309 0.124147 0.406095
0.591627 0.127442 0.0304644
0.110724 0.638666 -0.082034
0.678517 0.258976 -0.184968
0.630088 0.349197 -0.187648
0.605777 0.306582 0.698285
0.284696 0.591676 0.579933
0.581712 0.270162 -0.594844
0.534075 0.209088 0.275772
0.25177 0.337796 0.99988
0.356254 0.614671 -0.088936
0.167032 0.116729 0.401644
0.310302 0.208365 -0.694351
0.692921 0.111245 0.155687
0.210961 0.511124 0.854341
0.250121 0.154938 0.407323
0.429991 0.618178 -0.776665
0.331559 0.258638 -0.0806681
0.422357 0.22222 0.317427
0.594998 0.525953 0.554995
0.500498 0.701279 0.308476
0.628295 0.181928 -0.185246
0.152164 0.473874 -0.0838398
0.394192 0.628995 0.94321
0.400605 0.110895 0.353359
0.54992 0.577094 0.785519
0.579759 0.269267 0.462803
0.566136 0.252016 -0.358158
0.590963 0.531639 0.90795
0.629944 0.110765 -0.0240147
0.247269 0.560469 -0.447914
0.538723 0.587499 -0.332597
0.703564 0.587198 -0.0452125
0.237379 0.585342 0.40782
0.560121 0.5679 0.778937
0.248456 0.252594 -0.741321
0.432352 0.421505 -0.0959868
0.50247 0.206882 -0.073844
0.635539 0.441081 0.316182
0.246412 0.256938 -0.2765
0.566741 0.254236 -0.708145
0.212503 0.694833 -0.182516
0.307484 0.208763 0.54623
0.536447 0.485566 -0.0802517
0.249797 0.110917 -0.0799227
0.379719 0.186176 -0.318471
0.613963 0.325699 -0.676764
0.506474 0.11051 0.324705
0.324874 0.222576 0.999323
0.526013 0.594763 0.974156
0.354259 0.192734 0.660147
0.583743 0.218441 -0.00174546
0.309263 0.2082 -0.629386
0.206887 0.503653 0.817021
0.221696 0.111121 0.349212
0.703645 0.591569 -0.112275
0.665035 0.111591 0.147582
0.412374 0.682781 -0.184954
0.703593 0.378594 -0.138317
0.628569 0.4279 0.594767
0.557995 0.703586 -0.114101
0.243558 0.260739 -0.250658
0.62812 0.393633 -0.701079
0.492327 0.611892 -0.539185
0.290966 0.595817 0.773913
0.663065 0.243401 0.237432
0.398546 0.186451 -0.705336
0.134555 0.393093 0.318209
0.652191 0.70366 0.18763
0.185997 0.383669 0.818684
0.537669 0.700011 0.281027
0.211819 0.301102 -0.353191
0.269216 0.580828 0.722158
0.284649 0.221755 0.755191
0.424951 0.309531 -0.777784
0.195932 0.341567 -0.749201
0.648906 0.703631 0.338917
0.113986 0.20623 0.0913249
0.280712 0.111476 0.304973
0.345635 0.111529 -0.105704
0.255397 0.11133 0.317275
0.142987 0.430347 -0.185111
0.295504 0.703629 0.356612
0.136114 0.492625 0.40713
0.544887 0.580556 -0.735266
0.353299 0.192962 0.648608
0.689634 0.514883 0.406402
0.146505 0.598144 0.407243
0.111957 0.236668 0.257252
0.492218 0.202308 -0.59306
0.18918 0.367835 -0.237336
0.225354 0.534087 -0.462891
0.464356 0.564444 0.999885
0.668216 0.215747 0.407268
0.631194 0.404247 0.415824
0.357772 0.111207 0.374026
0.556658 0.242771 -0.569794
0.224365 0.6918 0.212301
0.621766 0.465362 0.784479
0.179284 0.197856 0.128
0.588386 0.401279 0.318106
0.216113 0.519137 -0.727624
0.19379 0.467396 -0.691214
0.190735 0.358433 0.581786
0.558274 0.570362 -0.279832
0.493414 0.611683 -0.515768
0.377875 0.658043 0.316271
0.624863 0.366235 0.446729
0.425732 0.186695 0.56147
0.356792 0.155383 0.407314
0.218854 0.190091 -0.185261
0.186494 0.429391 -0.569586
0.112505 0.689299 0.28043
0.662214 0.11076 0.001201
0.127083 0.511213 -0.0681613
0.11217 0.508653 0.310124
0.197034 0.50677 0.2906
0.409277 0.185511 0.741881
0.212737 0.701917 0.000513062
0.451835 0.190849 -0.293243
0.301324 0.214073 -0.293482
0.619955 0.111746 0.213965
0.295654 0.668552 -0.185226
0.18505 0.393419 0.767097
0.338207 0.196998 0.675912
0.397421 0.548495 -0.777741
0.462266 0.496753 -0.0891511
0.690667 0.576964 -0.00988176
0.640925 0.406459 -0.186456
0.407547 0.196791 -0.774232
0.605772 0.506929 0.548116
0.505042 0.489638 0.999875
0.329301 0.61456 -0.667322
0.571472 0.555818 0.829182
0.290842 0.217851 0.753524
0.428904 0.353995 0.316312
0.366183 0.600154 0.999817
0.382416 0.186304 -0.206703
0.129104 0.24208 0.406564
0.425958 0.186576 0.526462
0.496127 0.610708 0.695874
0.508651 0.508997 0.298098
0.408877 0.184786 -0.322228
0.269735 0.581096 0.604835
0.604888 0.579035 -0.00249184
0.533845 0.226602 -0.740317
0.598154 0.295399 -0.433039
0.177094 0.275193 -0.0453308
0.220222 0.235194 -0.0112098
0.364883 0.190271 -0.705614
0.261248 0.222652 -0.186198
0.377431 0.627253 0.546313
0.702872 0.220769 -0.00056688
0.265873 0.578082 0.611144
0.215522 0.588483 0.208855
0.15006 0.226947 0.00987472
0.377969 0.312793 0.315649
0.418115 0.62835 -0.52331
0.602018 0.514001 0.908051
0.191217 0.582071 0.221528
0.195934 0.339705 -0.513566
0.595728 0.524181 0.870254
0.111631 0.21094 -0.158999
0.198231 0.401214 -0.775326
0.258114 0.231756 0.408991
0.598657 0.520023 0.282716
0.626387 0.443728 -0.70365
0.191453 0.366576 0.47562
0.385234 0.1869 0.711442
0.521221 0.662919 0.407324
0.504741 0.606696 0.658776
0.170131 0.703627 0.267227
0.239745 0.111138 0.362014
0.35101 0.404441 -0.0967274
0.187593 0.390717 0.968125
0.62906 0.397233 -0.469902
0.528328 0.153582 0.407326
0.382793 0.332777 0.315892
0.703586 0.467159 0.340507
0.50771 0.604349 0.44093
0.376056 0.452376 -0.777791
0.204477 0.321545 -0.767461
0.265902 0.581034 -0.0407516
0.51206 0.358913 0.999881
0.29255 0.271245 0.999905
0.454147 0.503368 0.313564
0.62917 0.703683 0.265278
0.539098 0.674272 0.272156
0.439607 0.19374 -0.0934008
0.609159 0.499169 0.689607
0.435671 0.380984 -0.777787
0.293255 0.11287 0.39426
0.624116 0.456073 -0.640863
0.515864 0.392437 -0.0941078
0.603717 0.55518 -0.0326872
0.331075 0.6152 -0.615161
0.27074 0.232808 0.555263
0.456303 0.374046 -0.0925429
0.609682 0.498694 0.93955
0.187953 0.440867 0.839365
0.292635 0.667758 0.407312
0.702844 0.690353 0.380908
0.592653 0.529032 0.893602
0.200966 0.703628 -0.0600193
0.5728 0.626651 0.407313
0.459366 0.110649 0.349338
0.599253 0.520678 -0.527434
0.131219 0.70332 0.360507
0.605923 0.309941 -0.437952
0.367123 0.625314 -0.676142
0.126968 0.624872 -0.184537
0.387107 0.627617 -0.602827
0.703495 0.112696 0.100093
0.620662 0.522416 0.281259
0.569945 0.576142 0.24664
0.703608 0.596592 0.347829
0.703616 0.20287 -0.0752235
0.625056 0.703578 -0.00587966
0.544771 0.56538 -0.775055
0.295011 0.598018 0.657886
0.271989 0.532759 0.281446
0.409058 0.628811 -0.284906
0.35286 0.192302 0.765596
0.460843 0.192384 -0.759372
0.311528 0.607328 0.940386
0.508964 0.209779 -0.498102
0.192309 0.239802 -0.00906302
0.482481 0.198317 -0.674268
0.125889 0.419396 0.31845
0.573031 0.211347 -0.0155344
0.15307 0.112993 -0.170076
0.149702 0.52591 0.282244
0.631294 0.69621 0.404999
0.114583 0.612941 0.136077
0.406711 0.517586 0.999887
0.207271 0.30934 -0.507824
0.624353 0.451194 -0.363061
0.278815 0.703455 -0.158497
0.28499 0.592547 -0.442662
0.111066 0.255432 0.310867
0.626225 0.387327 -0.770869
0.618389 0.475608 -0.408039
0.454889 0.68761 -0.0917589
0.191718 0.703594 -0.0291518
0.380594 0.433552 0.322295
0.40689 0.610515 0.999323
0.175781 0.551311 0.261866
0.111286 0.224865 -0.139742
0.403383 0.599918 -0.777571
0.573162 0.554314 0.946206
0.542284 0.582357 0.466409
0.68617 0.280778 -0.0543755
0.217088 0.296102 -0.244909
0.255453 0.569002 -0.654644
0.703651 0.55433 -0.118618
0.624692 0.351877 -0.0889572
0.613294 0.116456 0.158512
0.634708 0.389534 0.316988
0.620729 0.345507 0.700378
0.111071 0.665038 0.334797
0.661865 0.291523 -0.0617246
0.282725 0.224484 -0.363112
0.68588 0.282591 0.278735
0.703614 0.670797 -0.023869
0.20894 0.267477 0.407553
0.463872 0.369607 -0.0916767
0.435401 0.42821 0.999884
0.431385 0.185772 0.429324
0.638982 0.54586 -0.185473
0.520746 0.110929 -0.111432
0.319711 0.611507 -0.462377
0.693328 0.207165 0.167334
0.142308 0.675758 -0.185076
0.220716 0.111193 0.32494
0.168889 0.111111 -0.0256345
0.215557 0.22181 0.210695
0.111296 0.156665 -0.142014
0.167438 0.421286 0.31741
0.21978 0.703707 0.278002
0.381878 0.627896 -0.400814
0.457574 0.192677 -0.206334
0.233754 0.269858 0.857767
0.178532 0.228423 0.209888
0.166923 0.703554 0.173977
0.689648 0.273866 0.27344
0.444686 0.703185 0.385569
0.351269 0.192342 -0.31203
0.533514 0.199088 -0.185651
0.359124 0.191668 0.645628
0.189578 0.703623 -0.065957
0.403189 0.435538 -0.777792
0.687351 0.154668 0.406839
0.633177 0.120042 -0.181807
0.35826 0.191708 0.694325
0.191782 0.46003 0.838555
0.205647 0.499558 0.486101
0.628839 0.39884 -0.549914
0.703613 0.655942 0.226085
0.6937 0.111441 0.235459
0.187589 0.376314 -0.750074
0.300931 0.111033 -0.129815
0.380306 0.627735 -0.431322
0.304356 0.603165 0.519979
0.593816 0.544182 0.265566
0.16562 0.111069 -0.0889563
0.561172 0.566285 -0.438963
0.577759 0.265176 -0.513047
0.649828 0.111014 0.341973
0.436382 0.187979 0.777501
0.524381 0.218221 0.730709
0.627607 0.378704 0.677473
0.293346 0.5974 -0.69251
0.563011 0.562837 -0.197278
0.694152 0.111063 0.0888478
0.215778 0.518011 -0.232794
0.303784 0.600117 -0.766288
0.548062 0.23508 0.826858
0.606926 0.110978 -0.106379
0.279654 0.464665 -0.0865348
0.27164 0.23118 0.635351
0.616772 0.594867 0.407321
0.195102 0.14619 0.407335
0.425137 0.471194 0.319154
0.218465 0.28989 0.803933
0.43941 0.321906 -0.777785
0.14487 0.280341 0.407235
0.55237 0.207568 -0.185522
0.549134 0.235602 0.761573
0.308716 0.177057 0.293902
0.598362 0.516733 -0.29862
0.615469 0.542851 -0.0450929
0.210618 0.303416 -0.567354
0.243108 0.613199 0.407316
0.598909 0.676266 0.0282565
0.283781 0.591058 0.648016
0.568938 0.229774 -0.0218218
0.129834 0.605329 0.0499176
0.703611 0.582127 0.324382
0.702786 0.687377 -0.10919
0.313005 0.3751 -0.092716
0.621971 0.464998 -0.246653
0.605236 0.508193 0.512365
0.628551 0.419016 0.912187
0.620182 0.239395 0.407318
0.619308 0.47489 -0.630548
0.138937 0.111208 0.174753
0.703629 0.659989 0.16319
0.678318 0.703387 0.320513
0.703645 0.297356 0.330805
0.255958 0.245457 0.573577
0.19676 0.338896 -0.675672
0.39995 0.186304 0.614034
0.196172 0.335231 0.836098
0.350648 0.62171 -0.500082
0.456458 0.191389 -0.613188
0.591393 0.531424 0.576675
0.202615 0.70365 -0.109539
0.467767 0.113375 0.394917
0.58459 0.703607 0.288022
0.179491 0.37822 -0.186227
0.261304 0.583312 0.41315
0.611419 0.495225 0.447106
0.271752 0.231838 0.871005
0.624301 0.359895 0.710345
0.463188 0.621729 -0.54676
0.464043 0.621496 -0.495115
0.402477 0.392643 0.319946
0.490393 0.612328 0.459721
0.575258 0.262978 0.48464
0.541812 0.463185 -0.777858
0.18916 0.397853 -0.0962367
0.34844 0.192222 -0.436765
0.425421 0.628214 -0.450172
0.387732 0.23356 0.999841
0.70035 0.298172 -0.0716939
0.449408 0.562062 0.999887
0.31501 0.205923 -0.0728284
0.538114 0.228524 -0.671732
0.647048 0.199848 0.0853209
0.650802 0.110873 -0.0703002
0.3139 0.608918 -0.499314
0.486279 0.267197 -0.777798
0.236754 0.266125 -0.752021
0.397845 0.272222 -0.0956461
0.198077 0.483076 -0.579285
0.622636 0.627139 -0.185295
0.113813 0.202496 0.108364
0.577474 0.120127 0.234977
0.564256 0.234918 -0.0274199
0.110453 0.174866 0.257889
0.281718 0.543529 -0.777777
0.177217 0.618113 0.108988
0.416955 0.614407 0.317681
0.291898 0.596118 0.678484
0.61009 0.31492 0.297331
0.425666 0.628476 -0.671094
0.208655 0.128932 0.406682
0.703483 0.122428 -0.0595817
0.626388 0.438044 -0.325306
0.185234 0.413506 0.776691
0.703614 0.603866 0.33432
0.189822 0.36399 -0.346671
0.269408 0.235905 -0.27766
0.272464 0.184421 0.407331
0.493382 0.440195 0.999875
0.703618 0.422875 0.369363
0.315936 0.610074 -0.308202
0.365988 0.251085 0.315257
0.234916 0.345462 0.306861
0.111473 0.330105 0.381725
0.221284 0.432283 0.999854
0.302711 0.602118 -0.751667
0.512092 0.652934 -0.185388
0.111236 0.26656 -0.104675
0.545091 0.111034 -0.12903
0.611664 0.656089 0.0769189
0.331648 0.453223 -0.777797
0.274436 0.228896 0.677388
0.151197 0.703578 0.324386
0.281866 0.703631 0.356239
0.186448 0.427744 -0.591705
0.206482 0.503064 -0.433701
0.111244 0.26111 -0.113366
0.576607 0.549173 -0.384233
0.378671 0.18691 0.961589
0.544005 0.233508 0.922882
0.110588 0.163065 0.273612
0.437705 0.187632 -0.57757
0.111271 0.26381 0.333476
0.546558 0.110903 -0.101784
0.398292 0.628532 -0.485853
0.118509 0.35324 -0.181553
0.65643 0.284551 0.27884
0.342258 0.61885 -0.60352
0.539539 0.229051 -0.279498
0.240897 0.264491 0.973731
0.637812 0.39134 0.409017
0.141652 0.111157 0.195005
0.695444 0.70114 0.33518
0.219188 0.479457 0.302279
0.37822 0.408874 -0.777787
0.533462 0.338459 -0.0838369
0.35142 0.622853 0.437695
0.200401 0.480188 0.986747
0.427521 0.628076 -0.298793
0.63257 0.11141 0.0206601
0.353948 0.191328 0.839914
0.628955 0.404698 -0.57065
0.585086 0.111682 0.38627
0.626508 0.444375 -0.511092
0.433192 0.627369 -0.638089
0.627258 0.425299 0.974646
0.200876 0.559671 0.407427
0.302675 0.603711 -0.334625
0.527894 0.220515 -0.437804
0.60863 0.541314 -0.0462683
0.452126 0.187475 -0.0912174
0.546398 0.580664 -0.381303
0.224694 0.280971 -0.676352
0.259141 0.580955 0.256703
0.703153 0.232756 0.261132
0.116073 0.11713 -0.0343113
0.697786 0.516453 -0.180706
0.581907 0.678184 -0.00351758
0.20936 0.703551 -0.151049
0.233279 0.436966 -0.777786
0.609394 0.156567 0.097838
0.187596 0.436428 0.585359
0.190056 0.703637 0.334419
0.247749 0.252868 0.667152
0.654788 0.627338 -0.185202
0.215679 0.680543 0.189132
0.594087 0.285865 0.713256
0.526887 0.218163 0.45322
0.64708 0.111125 0.360362
0.132405 0.280248 -0.0515555
0.527689 0.594419 -0.413256
0.227817 0.538019 0.516695
0.200624 0.691042 0.0955214
0.111726 0.529365 -0.168842
0.56788 0.702682 -0.170135
0.602005 0.514321 0.514032
0.679399 0.703239 -0.0382874
0.246965 0.56004 -0.529395
0.403756 0.629411 -0.690385
0.237434 0.264221 0.750938
0.191388 0.449387 -0.758084
0.418161 0.659096 0.407329
0.569155 0.25402 0.719808
0.470341 0.558377 0.306994
0.558299 0.562708 -0.0378306
0.171082 0.583895 0.407292
0.184703 0.703269 0.386887
0.703308 0.264767 0.295067
0.111 0.674783 0.264481
0.610979 0.318978 -0.285646
0.666159 0.620825 0.407283
0.268794 0.418273 0.999873
0.487107 0.614376 0.717925
0.15278 0.531634 0.278196
0.271745 0.582651 0.558599
0.656427 0.349029 0.407338
0.137677 0.111958 -0.163888
0.549695 0.228806 -0.041026
0.485755 0.616118 -0.357949
0.234376 0.546933 0.82103
0.650593 0.412871 0.317968
0.703589 0.199617 0.246445
0.256063 0.366314 0.999861
0.434344 0.702885 0.336778
0.19768 0.111636 0.387332
0.357103 0.238253 0.313395
0.462108 0.622192 0.520584
0.703599 0.292103 0.317144
0.703609 0.61425 0.356394
0.262718 0.492393 0.999886
0.604437 0.164752 0.054517
0.172862 0.703623 0.355256
0.408191 0.186091 0.551696
0.496493 0.176169 0.407557
0.232656 0.385005 0.317298
0.110584 0.553775 0.336381
0.492224 0.61201 -0.531398
0.700727 0.695091 0.0714692
0.663517 0.703604 0.365683
0.573526 0.258987 0.785335
0.27235 0.583121 0.692774
0.115924 0.117726 0.232632
0.183914 0.111459 0.174871
0.535588 0.588124 -0.256085
0.11053 0.633305 -0.0477595
0.619891 0.205982 0.0487531
0.110836 0.556193 0.310092
0.558969 0.247198 -0.736279
0.622603 0.282302 -0.0545566
0.110495 0.165594 0.227847
0.608943 0.500456 0.966895
0.618718 0.408678 -0.776498
0.425414 0.186157 -0.585652
0.223208 0.281956 -0.416715
0.509729 0.430123 -0.777826
0.556891 0.53045 0.27904
0.703617 0.555153 -0.152971
0.33264 0.589004 -0.0807189
0.643232 0.651648 0.407325
0.191675 0.36625 0.430287
0.387092 0.333084 -0.0957832
0.584257 0.480264 0.303616
0.526794 0.490061 0.999879
0.310311 0.604224 -0.764343
0.619826 0.342207 0.685984
0.356215 0.169842 0.407808
0.60113 0.300304 -0.503017
0.631351 0.218713 0.193992
0.335204 0.615568 0.984085
0.325684 0.200726 -0.386941
0.405671 0.328168 0.317519
0.280728 0.116936 -0.0617543
0.695465 0.253527 -0.0319221
0.703586 0.280948 -0.107617
0.192427 0.462488 0.652371
0.608338 0.31216 0.870707
0.428157 0.31287 -0.0944898
0.452698 0.561224 -0.0898819
0.286951 0.342321 0.30595
0.136065 0.615913 0.40675
0.486878 0.197634 0.441324
0.537548 0.228469 -0.702457
0.612926 0.488016 -0.313743
0.403393 0.111312 -0.120454
0.127208 0.391899 -0.0978071
0.628785 0.409352 -0.708679
0.217131 0.55356 -0.0340382
0.623312 0.459589 -0.239826
0.503347 0.60778 -0.455591
0.510132 0.703152 -0.0932101
0.605913 0.50589 0.709824
0.149194 0.703554 0.0396555
0.566553 0.560768 -0.435649
0.135864 0.403239 -0.185133
0.219178 0.524366 -0.742181
