0.701995 0.691656 0.119854
0.275157 0.120233 0.274463
0.693417 0.220159 0.024667
0.694206 0.111005 -0.0369301
0.505015 0.20281 0.419463
0.702168 0.453864 0.395909
0.2825 0.114829 -0.175413
0.694373 0.111054 0.0740828
0.702972 0.62375 0.159826
0.694927 0.523403 -0.182035
0.112239 0.46731 0.39382
0.631506 0.454685 -0.193156
0.696679 0.519988 -0.0655645
0.115869 0.530315 0.397953
0.119324 0.700445 0.149202
0.191592 0.414972 0.993234
0.11794 0.115968 -0.0817928
0.121985 0.639657 -0.18348
0.439819 0.200167 -0.775689
0.570158 0.271717 0.995746
0.699071 0.420254 -0.0991601
0.472693 0.210084 -0.776461
0.121976 0.444581 0.315994
0.117441 0.275741 -0.0516829
0.368479 0.695466 0.404017
0.698584 0.412089 -0.0992134
0.617048 0.115467 0.151358
0.700748 0.396741 0.399277
0.119001 0.200841 0.145509
0.382822 0.633096 -0.186322
0.117345 0.116694 0.327092
0.447189 0.625529 -0.187386
0.11696 0.117154 0.137417
0.400191 0.695355 0.322385
0.182073 0.437484 0.413963
0.242356 0.275412 -0.775331
0.702482 0.406598 -0.10505
0.415464 0.122197 0.405514
0.111794 0.466427 0.322124
0.698124 0.617424 0.0760064
0.436517 0.11591 -0.178621
0.45085 0.701074 0.397756
0.702398 0.120064 0.301314
0.200106 0.693856 0.107446
0.382637 0.183308 0.418481
0.112976 0.124066 -0.0289816
0.119946 0.588265 0.00260239
0.322761 0.112505 -0.0911503
0.534571 0.69304 -0.183482
0.701789 0.473129 -0.094979
0.635605 0.401313 -0.188953
0.41148 0.692971 0.405423
0.112729 0.58535 0.39287
0.117475 0.60785 0.139957
0.228027 0.531942 0.990941
0.474862 0.615646 -0.193839
0.120935 0.700552 0.333531
0.691337 0.60462 0.178853
0.70364 0.119737 0.0821021
0.308615 0.224497 0.99871
0.123452 0.211205 0.404897
0.700342 0.599291 -0.177959
0.122383 0.250546 0.251408
0.145136 0.690531 -0.184654
0.573787 0.254364 0.413918
0.577536 0.11231 -0.0149186
0.59675 0.291756 0.416632
0.117113 0.13505 0.401203
0.395798 0.698859 -0.104802
0.113196 0.383902 0.396298
0.479023 0.615486 -0.765529
0.124743 0.554045 0.264205
0.30763 0.699929 0.303522
0.112208 0.689299 0.0704284
0.41414 0.121271 0.318439
0.598263 0.514795 -0.765272
0.31679 0.19763 0.411065
0.696555 0.634359 -0.181504
0.203342 0.362183 -0.776548
0.240028 0.586369 0.231603
0.117174 0.451015 -0.0953995
0.550682 0.578478 -0.190699
0.116727 0.213148 -0.178441
0.634802 0.423457 -0.190089
0.114463 0.211949 0.0651777
0.599391 0.499471 0.996681
0.698291 0.216118 0.197784
0.352414 0.199513 -0.771354
0.244859 0.254491 0.414905
0.260692 0.570091 -0.767901
0.122383 0.113102 -0.0236159
0.621626 0.497972 0.410244
0.586063 0.543939 -0.192889
0.701255 0.620824 0.130559
0.336179 0.203605 0.994771
0.247184 0.266355 0.998448
0.447603 0.113786 0.397842
0.426441 0.630436 0.418823
0.480044 0.201353 0.990332
0.693103 0.701725 0.100153
0.191832 0.112675 0.148125
0.376969 0.122176 -0.0964885
0.694811 0.112086 -0.0788859
0.458706 0.124144 0.405817
0.115425 0.697592 0.129886
0.118594 0.280317 0.282896
0.199646 0.466649 0.993713
0.46661 0.190696 0.420412
0.586325 0.699971 -0.0110303
0.11955 0.166429 0.402693
0.481478 0.699202 0.401889
0.22559 0.27956 0.414528
0.700258 0.361009 0.317965
0.34752 0.117435 0.312782
0.581953 0.691519 0.405485
0.122761 0.113667 0.0460421
0.115 0.315526 0.307563
0.536044 0.581037 -0.77105
0.701579 0.663752 -0.174752
0.113566 0.121204 -0.0474659
0.525733 0.691879 -0.183985
0.123978 0.390585 0.405554
0.249851 0.688663 0.247675
0.586357 0.691207 -0.000100792
0.691673 0.701804 -0.159065
0.562046 0.121786 -0.0230499
0.693182 0.11167 0.283134
0.496561 0.701209 -0.0884431
0.462765 0.697403 0.316995
0.191598 0.702184 0.0756058
0.113774 0.694012 0.343183
0.112509 0.125501 0.376465
0.202663 0.367924 0.998011
0.625175 0.425743 0.991295
0.695181 0.417345 0.404871
0.120832 0.437071 0.404939
0.12036 0.401976 0.404784
0.197995 0.612752 0.15664
0.629499 0.367509 0.412048
0.613245 0.621727 0.079196
0.438469 0.693427 -0.0970654
0.20484 0.341655 -0.776297
0.348737 0.624074 -0.191327
0.23605 0.253951 -0.187178
0.608966 0.602948 0.179257
0.476157 0.202324 -0.772148
0.340089 0.209297 -0.775625
0.631127 0.407141 -0.19541
0.546208 0.696135 0.403584
0.62563 0.432109 0.98777
0.408096 0.12658 0.406548
0.44093 0.624849 -0.19194
0.280076 0.592845 0.41765
0.414394 0.118597 -0.181204
0.600512 0.693104 0.183937
0.116899 0.698497 0.157737
0.406019 0.181529 -0.191955
0.699011 0.603769 0.0238737
0.591523 0.701114 0.225366
0.111978 0.24349 -0.0282926
0.486978 0.189421 -0.186056
0.117666 0.116949 0.271286
0.111318 0.195374 0.111227
0.582811 0.70266 -0.0274033
0.118789 0.115718 0.0668841
0.206207 0.113625 0.022751
0.289824 0.11621 0.401514
0.122117 0.123737 0.40347
0.298173 0.695204 -0.0680715
0.701316 0.467399 -0.17435
0.601168 0.700014 0.0225439
0.117772 0.191581 -0.180582
0.701591 0.238479 0.396049
0.421331 0.196836 0.99729
0.602821 0.602689 0.185179
0.120044 0.230787 0.404145
0.598093 0.593278 0.0135836
0.618708 0.438641 0.99849
0.45173 0.124809 -0.183652
0.696323 0.33056 0.306631
0.444743 0.192911 0.993305
0.693534 0.701313 0.138182
0.378984 0.115047 -0.101782
0.114888 0.689476 0.393821
0.264708 0.700537 0.400114
0.118875 0.287003 0.286846
0.396491 0.633092 0.413262
0.678451 0.123388 -0.18332
0.406462 0.17543 -0.187291
0.124534 0.115858 0.398037
0.517954 0.601705 0.41802
0.192265 0.476408 0.41628
0.418537 0.196529 -0.774939
0.692039 0.452439 0.405872
0.114855 0.698093 0.37198
0.696022 0.114631 -0.16664
0.701883 0.498737 -0.174919
0.698743 0.289672 0.288385
0.606277 0.698506 0.167577
0.606031 0.334503 -0.775056
0.11517 0.21527 0.0510894
0.345203 0.198092 -0.76616
0.698132 0.259427 0.267039
0.691785 0.204876 0.0713453
0.318849 0.70201 -0.175276
0.557091 0.230583 0.411803
0.693081 0.607971 0.171314
0.124628 0.601216 0.159146
0.702636 0.669693 0.397346
0.651018 0.114202 -0.17555
0.690241 0.70209 0.392448
0.366966 0.693053 0.318433
0.312835 0.221205 -0.776385
0.475663 0.183466 -0.185419
0.429469 0.117191 0.4036
0.624779 0.693658 -0.181395
0.433821 0.629399 0.417292
0.456455 0.700716 -0.177291
0.256642 0.113721 0.397721
0.119865 0.200709 0.403155
0.212375 0.509749 -0.766345
0.252947 0.123218 0.252063
0.69943 0.20672 0.0489662
0.261789 0.581181 -0.192729
0.69418 0.111097 0.199861
0.316587 0.216919 0.998014
0.600462 0.113713 0.0277973
0.113951 0.120648 0.211276
0.122095 0.474349 0.405252
0.12037 0.113566 -0.151282
0.604341 0.520983 -0.196607
0.701966 0.44557 0.397303
0.594613 0.533373 -0.196504
0.422598 0.111956 -0.109652
0.503015 0.600362 0.996605
0.697274 0.467051 0.403949
0.620483 0.350421 -0.767629
0.221482 0.518731 0.991878
0.369231 0.112722 -0.10611
0.698861 0.391735 -0.17781
0.617582 0.698997 -0.177143
0.397213 0.627936 -0.198873
0.519628 0.209283 0.419671
0.572993 0.111747 -0.024427
0.330252 0.195258 0.414909
0.596966 0.520133 0.985787
0.489637 0.613748 0.420273
0.40712 0.699466 0.326882
0.186681 0.489042 0.408723
0.292986 0.701384 -0.176445
0.218545 0.544766 -0.187266
0.483781 0.118598 -0.0816924
0.701746 0.457773 -0.0984053
0.618918 0.479943 0.42064
0.581803 0.525434 -0.774396
0.11331 0.414328 -0.109292
0.195943 0.37193 0.995029
0.60573 0.318344 0.990779
0.187113 0.114046 0.105858
0.627749 0.374628 -0.196939
0.112569 0.477735 0.394204
0.612074 0.450695 -0.775875
0.316196 0.20686 -0.19542
0.389294 0.636339 -0.185702
0.702247 0.559575 -0.172956
0.489967 0.19355 0.412258
0.117509 0.604744 0.0504849
0.116878 0.450984 -0.179623
0.696465 0.466257 0.313358
0.700489 0.505211 -0.178627
0.584092 0.527754 0.995992
0.129057 0.126597 0.405333
0.477752 0.118454 0.403551
0.115502 0.512674 -0.179999
0.115195 0.697743 0.356675
0.219979 0.600427 0.197059
0.466679 0.699698 -0.096578
0.153563 0.701789 0.397366
0.701322 0.515854 0.399159
0.118745 0.357614 -0.0967192
0.694757 0.111087 0.124561
0.543023 0.577422 -0.767683
0.341671 0.193048 -0.192667
0.197577 0.351603 0.991589
0.513923 0.117583 0.291728
0.533771 0.117151 -0.0534982
0.620066 0.324082 -0.189963
0.512403 0.695356 0.404857
0.200584 0.475825 -0.77058
0.698141 0.201777 0.153749
0.702986 0.207686 0.0277063
0.700421 0.621332 0.101756
0.69315 0.550291 0.262598
0.196231 0.313004 -0.186503
0.116037 0.40399 -0.181053
0.11647 0.221035 0.219256
0.699066 0.477283 -0.0870843
0.122747 0.272537 -0.0466221
0.228628 0.279131 -0.767569
0.111656 0.206317 0.0509982
0.119567 0.701236 0.0188268
0.692473 0.409493 -0.182262
0.698412 0.387827 0.402115
0.693032 0.312083 -0.0751316
0.32421 0.695901 0.306717
0.425424 0.178806 0.410982
0.378313 0.179605 0.412293
0.693602 0.111125 -0.0480526
0.124979 0.36687 -0.184197
0.114121 0.119012 -0.128293
0.589125 0.115844 -0.177881
0.11786 0.599488 0.402727
0.421727 0.116107 -0.178927
0.663801 0.693666 0.406373
0.409192 0.629561 -0.191091
0.225906 0.122846 0.00544597
0.119442 0.602393 0.167999
0.11279 0.442514 0.396849
0.694856 0.110868 0.00511982
0.654784 0.701009 -0.175206
0.695292 0.11109 0.0814399
0.70185 0.59796 0.394074
0.699631 0.52421 0.401855
0.385197 0.111785 0.327713
0.112043 0.395422 -0.170192
0.701509 0.692128 -0.0616641
0.696628 0.699439 0.15238
0.348848 0.192162 -0.19582
0.691449 0.701632 0.320902
0.113978 0.191424 -0.17519
0.207667 0.307038 -0.193443
0.69469 0.11147 0.258827
0.207599 0.691294 0.405819
0.222774 0.119718 0.206421
0.614232 0.495934 0.416842
0.693574 0.596879 0.198282
0.462443 0.123843 -0.183684
0.123421 0.612444 0.404508
0.423146 0.182876 0.417222
0.123272 0.113038 0.184108
0.325147 0.206286 0.992908
0.114905 0.120421 0.263381
0.565696 0.554266 0.992173
0.625947 0.384463 0.987149
0.703575 0.118361 0.171791
0.70072 0.443759 -0.100152
0.702855 0.566242 -0.170006
0.207423 0.12053 0.404468
0.118046 0.460071 0.403916
0.699312 0.697348 -0.0370751
0.602178 0.321416 0.994895
0.121903 0.382533 0.405298
0.603029 0.614481 0.0407433
0.694453 0.616092 0.126173
0.59499 0.113515 0.224974
0.32945 0.199767 -0.196825
0.626582 0.427382 -0.766639
0.121441 0.337993 -0.182426
0.324614 0.214736 0.998223
0.5553 0.699258 -0.179029
0.609171 0.616924 0.056172
0.697068 0.306616 0.403619
0.121691 0.701361 -0.0610201
0.214401 0.699188 0.200236
0.232368 0.52879 0.996837
0.215841 0.536088 0.411603
0.616807 0.7032 0.158446
0.613971 0.475942 -0.770649
0.228939 0.113821 0.232354
0.224067 0.270835 0.409947
0.118207 0.55976 -0.0377522
0.637677 0.45962 0.408835
0.113343 0.693441 -0.133481
0.702011 0.230794 0.394066
0.63243 0.388634 0.412363
0.631133 0.437637 0.414826
0.701769 0.508213 0.307612
0.112494 0.455053 0.321012
0.614685 0.699782 0.0963071
0.63721 0.373005 -0.186237
0.627816 0.404671 -0.767938
0.702511 0.488679 0.395736
0.693334 0.61612 0.119552
0.697395 0.25556 0.401762
0.264752 0.112224 0.27886
0.447864 0.188691 -0.194541
0.416335 0.69448 -0.0996652
0.124495 0.660672 -0.18476
0.702998 0.123541 0.378239
0.116275 0.697648 -0.0240263
0.232553 0.586967 0.222914
0.337253 0.194513 0.418666
0.429491 0.190966 -0.7685
0.410137 0.18948 0.991033
0.419971 0.171907 -0.185814
0.525308 0.697002 0.403454
0.197791 0.338508 0.414052
0.693433 0.513524 -0.0675071
0.639784 0.119562 0.40314
0.579881 0.541248 0.989922
0.694524 0.605036 0.0390298
0.695976 0.112919 0.335588
0.595551 0.515549 0.994169
0.119528 0.6544 -0.183293
0.44949 0.17781 0.408499
0.118543 0.687224 0.402012
0.69686 0.586882 -0.000691627
0.316191 0.697045 0.303609
0.701378 0.338512 0.397088
0.283441 0.226414 -0.765106
0.513833 0.227206 -0.775538
0.197889 0.112813 0.16906
0.702325 0.586478 0.23159
0.113917 0.613864 0.0701384
0.579483 0.266188 0.417958
0.696257 0.275284 -0.0535367
0.184126 0.423365 0.420074
0.115569 0.288956 -0.0630012
0.637578 0.438367 -0.187772
0.477647 0.19137 -0.186652
0.265044 0.231503 0.410354
0.112832 0.372204 -0.175503
0.701777 0.123891 0.393953
0.703004 0.116251 0.26579
0.124113 0.701853 -0.0204471
0.11394 0.694759 -0.161006
0.701736 0.692867 0.027852
0.433021 0.18037 0.412268
0.509102 0.6015 0.991521
0.145011 0.123919 0.405414
0.126936 0.6086 0.098048
0.566512 0.121668 0.247721
0.357267 0.201744 0.9968
0.495177 0.702007 0.397802
0.550523 0.248326 -0.770343
0.379063 0.695635 0.321636
0.303996 0.601044 0.989554
0.20039 0.518069 0.408642
0.189528 0.392612 -0.767797
0.378739 0.618897 0.998676
0.696827 0.699811 -0.154027
0.228856 0.536535 -0.76611
0.444362 0.11718 0.403189
0.311274 0.591491 0.998998
0.396074 0.122045 -0.183569
0.633876 0.411483 -0.190802
0.113607 0.122839 0.131754
0.205481 0.328567 0.994471
0.165497 0.690966 0.405406
0.318479 0.111841 0.312529
0.183401 0.403885 -0.192412
0.123373 0.207196 0.0746897
0.373921 0.626607 -0.1952
0.120241 0.600034 0.174377
0.122311 0.312185 0.297682
0.492875 0.12339 0.405686
0.117413 0.115441 -0.113466
0.701915 0.599525 0.212808
0.20171 0.115513 0.0457413
0.702594 0.449034 -0.104359
0.701221 0.691511 0.303413
0.524825 0.699439 0.289777
0.572074 0.244731 0.411028
0.48503 0.61168 -0.198085
0.225363 0.700104 0.225283
0.346323 0.631097 -0.185713
0.6981 0.338995 -0.0878899
0.584934 0.225537 -0.00210032
0.523543 0.591311 -0.770617
0.620977 0.618276 0.0935719
0.27641 0.247402 0.998997
0.701496 0.574622 -0.175772
0.112475 0.380281 -0.17315
0.614225 0.118208 0.113932
0.70258 0.309202 -0.082096
0.566933 0.69658 0.252811
0.552622 0.11679 0.402227
0.594065 0.698512 0.00875587
0.697775 0.69847 0.307256
0.289263 0.237617 -0.776992
0.692676 0.420308 0.318759
0.11606 0.117507 0.171596
0.114058 0.537181 -0.0610571
0.337149 0.609293 0.998122
0.623728 0.615513 0.085864
0.279607 0.225239 -0.191913
0.114645 0.617531 0.395565
0.113937 0.425217 0.323531
0.211009 0.48726 0.996374
0.123062 0.383227 -0.0977857
0.120415 0.59721 0.186834
0.470246 0.618519 -0.765359
0.308697 0.122339 0.405539
0.266453 0.240398 0.988487
0.702767 0.111891 -0.00484139
0.468926 0.612686 0.995771
0.62964 0.383341 0.416418
0.114556 0.120357 0.0294017
0.20221 0.350669 -0.775926
0.188729 0.113953 0.397994
0.688787 0.702601 0.270683
0.393974 0.176156 -0.187903
0.257715 0.574657 -0.1962
0.121555 0.418314 0.405249
0.123493 0.112526 -0.0361747
0.700802 0.213593 -0.173746
0.512317 0.192771 0.409201
0.328779 0.120527 -0.181633
0.571613 0.113597 0.252718
0.694191 0.444369 -0.0933312
0.113851 0.693911 -0.0487015
0.576019 0.121483 -0.00368119
0.692415 0.121853 -0.180104
0.702992 0.371626 -0.105565
0.69776 0.112016 0.243869
0.119233 0.46639 -0.181363
0.330738 0.619055 -0.192978
0.461422 0.625634 0.413385
0.630894 0.420023 -0.195629
0.119323 0.547137 -0.0466329
0.70365 0.120916 0.113812
0.122514 0.701629 0.0307348
0.694115 0.275025 0.40482
0.60338 0.69549 0.175422
0.696274 0.411629 0.319882
0.694135 0.524331 0.287728
0.118598 0.69993 -0.13213
0.619835 0.437843 -0.774222
0.694708 0.501983 -0.0744005
0.121295 0.70115 0.0966716
0.179817 0.12006 -0.18087
0.548623 0.12465 0.405757
0.179168 0.408324 -0.187749
0.607726 0.694511 0.0514219
0.568367 0.699908 0.399363
0.124585 0.64767 0.405864
0.433686 0.179777 -0.187266
0.608229 0.125554 0.100992
0.187541 0.333249 0.407975
0.121287 0.31881 0.302261
0.121165 0.276686 -0.18236
0.119879 0.170532 -0.181926
0.121043 0.701971 0.358227
0.342919 0.116221 0.40131
0.696196 0.302374 -0.180554
0.620989 0.703245 0.117953
0.610216 0.470141 -0.775024
0.349232 0.618536 -0.770105
0.504642 0.195276 -0.186522
0.114687 0.212591 0.20857
0.131689 0.699478 0.399685
0.702781 0.424829 0.394343
0.20486 0.523763 0.409469
0.116523 0.37759 0.402508
0.198357 0.344439 -0.772005
0.691153 0.228495 0.216947
0.70138 0.692723 -0.0120698
0.698806 0.512055 -0.0721408
0.625966 0.376404 -0.766475
0.467402 0.125767 0.405881
0.12215 0.457173 0.313788
0.263506 0.115192 0.400436
0.579103 0.700586 0.244454
0.258893 0.235512 -0.18883
0.231925 0.69209 -0.00970372
0.352745 0.111757 0.325431
0.311197 0.12468 -0.0749399
0.261372 0.699532 0.267
0.697491 0.698326 -0.118552
0.461523 0.701619 0.324198
0.240236 0.695803 0.23974
0.115653 0.342384 0.401513
0.695831 0.699938 0.276582
0.195196 0.509589 0.408119
0.540664 0.236336 0.988532
0.36682 0.113309 0.396669
0.113241 0.285896 0.393878
0.11386 0.40553 -0.108346
0.402834 0.113138 0.32525
0.660642 0.69889 -0.178687
0.20342 0.317031 0.410714
0.609912 0.360026 0.998277
0.12124 0.217342 0.206409
0.27489 0.691766 -0.183622
0.474938 0.114058 0.397342
0.115183 0.383748 0.323971
0.703408 0.391624 0.329992
0.484499 0.699063 -0.179232
0.324859 0.600899 0.999156
0.592694 0.600588 0.201427
0.701891 0.61959 0.053947
0.219617 0.497986 0.998035
0.362934 0.62818 0.417479
0.598051 0.122284 -0.181667
0.371894 0.622699 0.996355
0.451378 0.634505 0.408427
0.192929 0.702225 0.152037
0.122984 0.113026 -0.00437862
0.535872 0.117846 0.402308
0.123051 0.261709 -0.0363383
0.585634 0.260829 -0.189927
0.606827 0.483863 -0.773689
0.21985 0.701603 0.396441
0.125743 0.702545 0.380023
0.695514 0.110855 0.0411738
0.282875 0.69106 -0.183731
0.69677 0.700447 0.172478
0.560571 0.115027 -0.0289755
0.517935 0.606552 -0.186246
0.119964 0.116495 -0.173249
0.528199 0.596608 0.414891
0.11648 0.527384 -0.181019
0.702172 0.549073 0.396081
0.695159 0.639391 0.404363
0.286265 0.701653 0.293984
0.699891 0.641726 -0.177772
0.112497 0.203816 0.0959074
0.697796 0.698535 0.322853
0.700571 0.567261 0.251541
0.319502 0.626613 -0.185934
0.440252 0.113507 0.321422
0.211104 0.699537 0.192821
0.541479 0.119704 -0.181491
0.259221 0.11889 -0.0415054
0.114905 0.472719 0.401005
0.117859 0.241742 -0.180001
0.585483 0.6962 -0.00480487
0.470865 0.699578 -0.178229
0.113208 0.457682 0.398093
0.696447 0.54395 0.270557
0.25914 0.247051 0.988015
0.626113 0.118891 0.403138
0.422262 0.120888 0.318004
0.236527 0.261551 -0.190572
0.195207 0.436795 -0.771483
0.617323 0.701745 0.396874
0.300386 0.70194 -0.175388
0.118821 0.115476 0.178516
0.595214 0.126378 0.201788
0.286597 0.691762 -0.0583058
0.702702 0.180503 0.390562
0.422153 0.619758 -0.776631
0.505491 0.617977 0.409075
0.59107 0.538496 0.414885
0.113195 0.123181 0.391763
0.11515 0.696169 0.23322
0.695063 0.305402 -0.0725316
0.583848 0.263074 0.411164
0.495151 0.61383 0.41345
0.112815 0.691051 0.376607
0.69886 0.569391 -0.0243431
0.612188 0.483812 -0.768076
0.693986 0.371796 0.315087
0.590863 0.698494 0.217781
0.113599 0.694939 0.108474
0.26118 0.589519 -0.188099
0.69265 0.111387 -0.0574692
0.550782 0.244427 0.987496
0.701304 0.15843 -0.172963
0.120009 0.700977 0.263837
0.52105 0.224739 0.994422
0.610669 0.702629 0.185817
0.581746 0.701352 -0.17388
0.70323 0.111862 0.0545778
0.266043 0.122994 0.265406
0.538049 0.219459 0.416191
0.313116 0.113251 0.302944
0.117457 0.548303 0.275345
0.236899 0.270215 0.988308
0.698813 0.54059 0.277255
0.119298 0.115131 -0.0736274
0.703652 0.121322 0.0738703
0.118799 0.699764 0.20437
0.122137 0.507285 -0.183908
0.605689 0.696368 0.40342
0.285049 0.222636 0.416766
0.703049 0.112752 0.0705041
0.53001 0.213135 -0.189568
0.699111 0.617011 0.140773
0.574293 0.694228 -0.0180339
0.58939 0.529523 0.988631
0.697351 0.699074 0.0296966
0.701943 0.520471 -0.0738831
0.335426 0.123776 -0.183432
0.695797 0.684451 -0.180915
0.592193 0.275899 -0.192861
0.491242 0.700627 0.310418
0.7023 0.262511 0.393281
0.27395 0.111919 0.287652
0.247081 0.570937 0.412524
0.122298 0.702148 0.117337
0.114192 0.200867 0.174742
0.112444 0.603561 0.0193368
0.693267 0.111724 -0.0898263
0.491393 0.620554 0.409815
0.600564 0.702578 0.212758
0.609895 0.492609 0.988119
0.255648 0.584519 -0.187988
0.562555 0.239835 -0.19199
0.416047 0.701865 0.395397
0.327281 0.623682 0.409937
0.154179 0.693526 0.405013
0.113827 0.616507 0.0961752
0.607579 0.702412 0.192155
0.598298 0.278252 -0.189851
0.575426 0.240399 -0.0180422
0.403106 0.174695 0.409804
0.114645 0.145917 0.397661
0.701702 0.112082 -0.0347214
0.697307 0.456175 -0.0925228
0.523228 0.697686 -0.0679168
0.528152 0.591976 0.987496
0.701066 0.542473 -0.0548739
0.211425 0.333556 -0.77708
0.189382 0.11397 0.0905386
0.564354 0.259868 -0.768727
0.696855 0.616222 0.133989
0.122261 0.701787 0.216517
0.569231 0.557086 -0.199644
0.295505 0.695681 0.40465
0.613823 0.700063 0.122807
0.516505 0.58931 -0.775581
0.692113 0.552545 -0.0368787
0.694706 0.173687 0.404691
0.117219 0.307994 0.401948
0.400589 0.690739 -0.183954
0.607818 0.20055 0.0438508
0.696589 0.263018 -0.0439854
0.219553 0.113322 0.219884
0.302591 0.212619 -0.193861
0.11231 0.52416 -0.173239
0.694484 0.112959 -0.137845
0.29656 0.209849 -0.189107
0.201011 0.502838 0.410333
0.695622 0.372121 -0.18123
0.118677 0.53969 -0.0529403
0.574556 0.114812 -0.177999
0.321274 0.619977 0.411227
0.696803 0.400848 0.31943
0.195652 0.480055 -0.199315
0.700091 0.168919 0.399695
0.118158 0.700038 0.00150976
0.336873 0.70065 -0.0932398
0.596095 0.693044 0.197954
0.541101 0.243003 -0.772216
0.122297 0.585823 0.218855
0.115622 0.118074 -0.062655
0.696963 0.699129 0.243156
0.701629 0.183958 0.396484
0.114437 0.120204 -0.00331552
0.457999 0.181463 -0.185675
0.489442 0.11516 -0.177103
0.691745 0.111823 0.291372
0.700164 0.696879 0.338265
0.11372 0.128803 -0.172343
0.214369 0.303638 0.990448
0.454547 0.114 -0.175698
0.16768 0.698452 0.40188
0.600817 0.615907 0.179239
0.117831 0.114365 -0.137064
0.115033 0.465538 -0.093461
0.2002 0.69512 0.0840207
0.692863 0.575078 0.232716
0.462252 0.610021 0.997827
0.47534 0.118931 -0.1818
0.696806 0.287151 -0.0617872
0.700437 0.161248 0.399749
0.300086 0.210063 0.413566
0.688062 0.702367 0.244943
0.688313 0.702887 0.179652
0.272044 0.117147 -0.17876
0.116097 0.217175 0.213443
0.214494 0.290372 0.410794
0.194107 0.489519 0.410737
0.530493 0.598398 -0.186488
0.60605 0.702988 0.0166407
0.690278 0.702288 0.082966
0.449448 0.114997 0.317615
0.622894 0.360177 -0.768752
0.18429 0.396561 -0.194439
0.510832 0.110973 -0.0799232
0.198269 0.121212 0.404792
0.691575 0.143885 -0.182923
0.701527 0.373913 0.396666
0.436007 0.635934 -0.185523
0.602912 0.530764 0.410129
0.616228 0.328772 0.414612
0.700779 0.294615 -0.174706
0.511881 0.20764 -0.192425
0.220379 0.290404 0.417287
0.231255 0.698202 -0.0142376
0.697119 0.113619 -0.153241
0.116955 0.56927 0.253014
0.627211 0.405088 0.986114
0.621894 0.452614 0.993329
0.574346 0.540896 0.994426
0.190328 0.344145 -0.191088
0.232654 0.112194 0.244867
0.698282 0.261857 -0.179852
0.185758 0.696387 -0.181885
0.466954 0.632085 0.408482
0.492802 0.616855 -0.186743
0.537923 0.222055 -0.193481
0.603928 0.119099 0.18319
0.323153 0.616728 -0.193672
0.60606 0.127039 0.150746
0.208005 0.516061 0.412754
0.459314 0.700384 -0.0980411
0.692117 0.11217 0.374586
0.202838 0.701711 0.181995
0.601615 0.296516 0.414416
0.122559 0.51487 -0.184084
0.12427 0.608391 0.0774995
0.538875 0.1172 0.275896
0.627778 0.437641 0.422278
0.689304 0.702274 -0.0270071
0.593363 0.220966 0.00975289
0.702953 0.626962 0.114671
0.123004 0.602246 0.0371673
0.539944 0.576632 0.994677
0.69322 0.111919 -0.0983072
0.596471 0.701931 0.0028285
0.509142 0.22236 -0.774692
0.702837 0.375628 0.32608
0.549267 0.580338 0.416726
0.115355 0.611584 0.120631
0.703613 0.120094 0.200931
0.118555 0.700499 0.22501
0.298711 0.1179 0.291705
0.47353 0.114956 0.31135
0.28627 0.229817 0.996451
0.59739 0.538354 -0.189241
0.625211 0.411665 0.992903
0.696681 0.203141 0.0784036
0.701075 0.548557 0.275927
0.701721 0.692114 -0.0320237
0.473589 0.628952 0.409108
0.120897 0.113534 0.367221
0.694425 0.131886 0.404463
0.311551 0.115057 -0.176572
0.691332 0.701607 0.238698
0.618182 0.470305 0.987763
0.118205 0.336088 -0.089703
0.604154 0.117505 -0.180095
0.293418 0.112159 0.29782
0.692604 0.111076 0.16639
0.322719 0.124145 -0.0799343
0.449892 0.6908 0.315885
0.198769 0.418293 0.998539
0.606651 0.515792 0.41553
0.700069 0.389285 -0.0997469
0.202032 0.698463 0.0540098
0.114007 0.314017 -0.0854344
0.612127 0.318996 0.416312
0.692667 0.112354 -0.108903
0.218049 0.528857 0.417241
0.625019 0.414561 -0.772648
0.119005 0.562819 -0.180256
0.20059 0.120268 0.0644301
0.692751 0.344906 -0.0877962
0.18807 0.464932 -0.192169
0.120519 0.285086 -0.0574994
0.198339 0.121054 0.0808447
0.676868 0.11346 -0.173171
0.494753 0.690475 0.300576
0.114226 0.349732 0.399347
0.111426 0.209788 0.0361567
0.696116 0.198754 0.104157
0.702825 0.120424 0.344555
0.111366 0.192189 0.134609
0.115197 0.244395 0.252187
0.444881 0.113885 -0.0969821
0.27341 0.592582 0.413179
0.204213 0.602586 0.174253
0.618352 0.35905 0.99413
0.697089 0.700122 0.19271
0.700875 0.698039 0.360439
0.410528 0.125039 -0.0973655
0.612387 0.304828 0.410515
0.116822 0.11752 -0.010347
0.557384 0.700768 0.397712
0.528483 0.588686 -0.195001
0.495993 0.119264 -0.0762443
0.21039 0.527922 -0.188621
0.114056 0.243293 -0.174287
0.60422 0.612243 0.173233
0.618021 0.366921 0.994573
0.502062 0.697084 -0.181584
0.610571 0.695642 0.134038
0.700294 0.696891 0.216677
0.344264 0.698693 -0.0929372
0.357691 0.113515 0.318163
0.367974 0.185108 -0.191373
0.303698 0.211829 0.42272
0.118688 0.116187 0.350851
0.198212 0.1157 0.0581609
0.2262 0.543733 -0.191322
0.205535 0.301798 0.409077
0.699205 0.550677 -0.0430306
0.114089 0.499668 0.399169
0.249003 0.117187 0.250975
0.530013 0.578053 -0.775087
0.251226 0.249931 0.417423
0.11705 0.699492 0.1223
0.702844 0.197671 0.0557421
0.631284 0.438035 -0.193259
0.351979 0.612393 -0.775746
0.693505 0.377367 -0.0955084
0.112891 0.69105 0.158832
0.699192 0.312589 -0.177539
0.123474 0.701687 0.0532848
0.516487 0.220733 -0.769965
0.138766 0.698987 0.400328
0.115333 0.585436 0.23618
0.701507 0.285592 0.292486
0.185661 0.442784 -0.192539
0.697562 0.69892 0.0929896
0.3038 0.204847 0.411707
0.695306 0.110896 0.0506486
0.498097 0.701485 -0.176779
0.702213 0.444483 -0.170294
0.180574 0.443568 -0.18756
0.421141 0.699793 0.326432
0.435413 0.117825 0.318
0.374321 0.178471 -0.186921
0.484195 0.115937 0.401163
0.622496 0.373458 -0.774208
0.697689 0.325177 -0.0827784
0.697533 0.698096 -0.0450565
0.343259 0.121961 -0.182959
0.695383 0.410579 0.404705
0.693394 0.454406 -0.182071
0.171546 0.420004 -0.185503
0.398955 0.198249 -0.77463
0.701383 0.323187 0.398379
0.111333 0.4451 0.327312
0.610736 0.461646 0.999263
0.582599 0.558309 0.410288
0.286983 0.117812 0.284806
0.268487 0.702072 0.280276
0.122982 0.564751 0.252572
0.702933 0.490621 -0.0904463
0.209526 0.691355 0.172868
0.368886 0.628433 -0.18777
0.377108 0.125048 -0.184233
0.585452 0.552856 -0.187223
0.118832 0.114404 -0.121022
0.117414 0.404095 0.32288
0.24641 0.11499 -0.0338859
0.583837 0.125812 -0.183342
0.324805 0.610691 0.991588
0.697619 0.606998 -0.180601
0.124431 0.701924 0.0782868
0.700401 0.69525 0.126172
0.350233 0.113849 0.39742
0.601275 0.30149 0.421653
0.120128 0.470751 0.311494
0.486866 0.203283 -0.766687
0.38562 0.614633 0.999284
0.556704 0.260938 0.996972
0.182539 0.402445 0.415463
0.174389 0.427516 0.409711
0.702579 0.32228 -0.0885464
0.213468 0.118591 0.0220414
0.271982 0.224294 0.409318
0.594322 0.698833 0.211149
0.112775 0.691303 0.287949
0.695122 0.562177 0.249773
0.603168 0.315658 -0.772036
0.111889 0.2066 0.0610336
0.604329 0.521973 0.413088
0.363486 0.11409 -0.175023
0.546835 0.69944 -0.179356
0.699695 0.165098 -0.176431
0.494442 0.121422 -0.181971
0.39011 0.628016 -0.19506
0.127821 0.608711 0.0896263
0.525018 0.120672 -0.0590254
0.562362 0.695006 0.403878
0.703331 0.328236 -0.0943546
0.621438 0.703497 0.0762256
0.262247 0.701618 -0.0504999
0.123853 0.605901 0.126465
0.42523 0.692625 0.405823
0.592006 0.507306 0.998016
0.232217 0.696072 0.229217
0.48872 0.604955 0.997131
0.479377 0.191498 0.414245
0.114239 0.311412 -0.177061
0.701996 0.346921 0.319072
0.112243 0.419407 0.393533
0.443652 0.634771 -0.185516
0.215764 0.504545 0.995206
0.698366 0.58858 0.218267
0.573576 0.556465 -0.191485
0.699507 0.547851 0.402581
0.17396 0.397364 0.409044
0.211703 0.530153 0.411103
0.702262 0.115177 0.236456
0.269913 0.11563 0.273624
0.117861 0.115894 0.392582
0.702775 0.291137 -0.0740604
0.117361 0.115973 0.116749
0.272762 0.598737 -0.188348
0.237092 0.125686 -0.183419
0.115622 0.414544 0.401596
0.69692 0.699003 -0.108645
0.13142 0.691952 0.405211
0.619363 0.309754 -0.187477
0.481789 0.702578 0.322217
0.693281 0.626396 -0.182923
0.189865 0.45966 -0.196781
0.24211 0.262381 -0.765659
0.388911 0.694644 0.404363
0.116 0.681022 -0.181169
0.116733 0.264436 -0.17981
0.610404 0.12114 0.107489
0.120454 0.178694 -0.182242
0.696405 0.111007 0.0968493
0.544034 0.581928 -0.19148
0.115886 0.208702 0.193803
0.176355 0.425521 -0.185816
0.582718 0.254043 -0.188532
0.210591 0.296134 -0.190152
0.701901 0.350751 -0.172275
0.70121 0.579843 -0.0185985
0.1916 0.403677 0.994858
0.591439 0.692249 -0.182522
0.692501 0.201931 0.14084
0.319609 0.613731 0.417143
0.408275 0.624916 0.993312
0.112617 0.618603 -0.173694
0.579027 0.289246 -0.775069
0.698804 0.587882 -0.180236
0.501684 0.599429 -0.773843
0.584738 0.534965 0.990943
0.494775 0.119775 0.300261
0.324513 0.609017 -0.768865
0.122819 0.70146 0.0396653
0.547716 0.586282 0.411936
0.69542 0.70192 0.36491
0.31811 0.620061 -0.18841
0.529414 0.697613 -0.0632831
0.363178 0.122631 -0.183433
0.541908 0.700336 0.399324
0.11466 0.168027 -0.175402
0.690507 0.326488 0.302602
0.671018 0.112732 0.394216
0.237473 0.122012 0.231422
0.6996 0.199028 0.0900943
0.12218 0.222733 0.0206365
0.564938 0.232294 0.409522
0.701461 0.648323 -0.175167
0.690944 0.327452 0.406167
0.417165 0.191903 0.993982
0.212345 0.517066 0.41944
0.700981 0.381096 0.3976
0.122916 0.113182 0.158997
0.702041 0.493942 0.313034
0.553438 0.696361 0.26653
0.360492 0.62404 -0.764323
0.587795 0.274673 -0.200031
0.697852 0.579702 0.230525
0.332561 0.697268 -0.181071
0.555383 0.567855 -0.767594
0.624336 0.42128 -0.773077
0.470509 0.698591 0.402076
0.117076 0.445287 0.4031
0.694688 0.538222 -0.0505267
0.568126 0.565805 0.415068
0.692418 0.506736 0.405857
0.20841 0.496492 -0.77281
0.189726 0.390469 0.987484
0.702244 0.206264 0.0347143
0.123896 0.11268 0.0239342
0.402371 0.690852 0.405938
0.115926 0.200842 0.123246
0.120464 0.519005 0.292004
0.209947 0.309355 -0.766148
0.690801 0.272605 -0.049008
0.701095 0.203931 0.182788
0.702971 0.692066 0.372303
0.200729 0.460083 0.996256
0.120358 0.609108 0.105242
0.695855 0.701501 0.384565
0.611063 0.700907 0.146491
0.124854 0.222519 -0.183574
0.298423 0.694921 0.293055
0.189571 0.493988 -0.187293
0.11714 0.523453 -0.0659645
0.702711 0.421802 0.329368
0.124981 0.689168 -0.183216
0.191794 0.50283 0.407908
0.55769 0.249594 0.986067
0.337785 0.114759 -0.0906046
0.253373 0.253734 0.992278
0.120265 0.678867 0.404018
0.327524 0.190257 0.410003
0.697354 0.660471 0.404917
0.448464 0.122972 0.40597
0.695106 0.437896 0.317484
0.209736 0.113838 0.015358
0.702081 0.614911 0.18456
0.691888 0.613632 0.140129
0.49315 0.696925 -0.0830029
0.12252 0.583737 -0.00514977
0.177563 0.374045 0.40834
0.697754 0.631247 0.402458
0.12325 0.519249 0.405286
0.196583 0.70137 0.057492
0.544775 0.111324 -0.0546221
0.270421 0.252518 0.999363
0.385211 0.196837 -0.773776
0.701238 0.6941 0.171705
0.552667 0.1185 -0.181539
0.625983 0.121957 -0.18278
0.20181 0.329746 0.987425
0.325696 0.199111 -0.190914
0.207257 0.481322 -0.774551
0.12329 0.113356 0.0382349
0.12309 0.158399 0.404599
0.699832 0.56563 -0.178211
0.391831 0.694561 -0.182834
0.556181 0.691123 -0.0371095
0.188962 0.331266 -0.186697
0.702426 0.112767 0.144208
0.32863 0.205831 -0.771118
0.195222 0.700312 0.100583
0.111987 0.487165 0.317018
0.376901 0.184137 -0.19133
0.221003 0.122999 0.405557
0.248417 0.255103 -0.763701
0.702651 0.191516 0.144088
0.60683 0.614093 0.049254
0.505912 0.601603 -0.195567
0.120838 0.20091 -0.18217
0.120384 0.180882 0.403833
0.601434 0.223762 0.0126625
0.122024 0.591726 0.00991257
0.588639 0.276591 0.41694
0.113118 0.572764 -0.172254
0.69763 0.698205 0.0861502
0.701875 0.426109 -0.101943
0.699699 0.612135 0.177016
0.116231 0.338985 0.312839
0.196541 0.483535 0.416727
0.117411 0.115359 0.101778
0.629302 0.394358 0.419821
0.479425 0.112248 -0.0881648
0.281328 0.113699 -0.0685554
0.593406 0.119835 0.211424
0.134882 0.116672 -0.176833
0.699654 0.691511 -0.175163
0.439829 0.175843 0.408575
0.113595 0.446305 -0.102162
0.700905 0.693278 0.0517398
0.256371 0.700884 -0.175188
0.699481 0.135444 0.401532
0.173933 0.382515 -0.18556
0.70048 0.115544 -0.109464
0.273542 0.235501 0.991024
0.17257 0.417964 0.408826
0.364796 0.200482 -0.774824
0.604104 0.296987 -0.195131
0.703307 0.346016 -0.100753
0.636434 0.387833 -0.187342
0.326845 0.190253 -0.186962
0.115841 0.367652 -0.180584
0.115397 0.696804 0.259893
0.231156 0.522931 -0.777034
0.53079 0.124885 -0.183419
0.21943 0.699536 -0.00326088
0.114324 0.600204 0.0265327
0.61694 0.698014 0.402951
0.535173 0.68991 0.406274
0.69526 0.384369 -0.0966005
0.118711 0.606386 0.0604872
0.519727 0.11381 0.397057
0.111357 0.199273 0.0833957
0.308335 0.61091 -0.195077
0.510075 0.605514 0.418573
0.701599 0.413188 -0.169562
0.699796 0.428674 -0.174847
0.113014 0.561474 -0.04457
0.701548 0.608899 -0.174512
0.238972 0.578542 0.235798
0.291554 0.602879 0.412384
0.538978 0.588347 -0.18889
0.240603 0.118739 -0.0198206
0.700985 0.117119 -0.140378
0.700974 0.249812 -0.173174
0.487883 0.611624 -0.766488
0.119224 0.502682 0.40386
0.207502 0.290901 -0.187519
0.33228 0.200764 0.989388
0.113703 0.692159 0.384469
0.521219 0.596319 0.987539
0.703489 0.116539 0.149513
0.614471 0.701487 0.0790672
0.413096 0.181365 0.416075
0.492551 0.690886 -0.079864
0.694534 0.424531 0.405096
0.238798 0.284355 -0.776585
0.503763 0.120282 -0.0722552
0.267275 0.585866 -0.193503
0.55378 0.113689 -0.17464
0.559273 0.114462 0.263782
0.561398 0.695353 -0.182028
0.650147 0.700351 0.401158
0.331545 0.612628 -0.767813
0.113299 0.364784 0.39672
0.171116 0.397925 -0.185423
0.700866 0.696111 0.353437
0.44973 0.701919 -0.173776
0.608282 0.339015 0.996426
0.594509 0.268237 -0.18818
0.11256 0.411882 0.395029
0.695305 0.602472 0.18676
0.392128 0.69704 0.324001
0.702197 0.204057 0.0413912
0.112577 0.501152 0.311237
0.26863 0.241195 -0.77188
0.114728 0.386413 -0.178038
0.627471 0.45331 -0.200501
0.613543 0.626642 0.0863366
0.113684 0.208292 0.0814348
0.516829 0.112048 0.299008
0.120797 0.20208 0.113066
0.690128 0.26158 0.262299
0.703406 0.12248 -0.0710277
0.596642 0.11765 0.402
0.122199 0.306361 -0.0713336
0.690551 0.154698 -0.183329
0.661745 0.702895 0.394934
0.114437 0.369679 -0.104968
0.552827 0.224573 0.410729
0.696094 0.225619 0.0117667
0.7004 0.339981 -0.176197
0.194495 0.700406 0.0854233
0.60984 0.690939 0.140973
0.11493 0.597242 0.21039
0.120243 0.114923 0.24731
0.392058 0.201562 -0.7759
0.197807 0.602028 0.167162
0.614716 0.693156 -0.181793
0.116728 0.591867 0.215929
0.699407 0.346943 -0.178788
0.277096 0.6994 0.281693
0.702284 0.534252 -0.066372
0.122127 0.60537 0.134111
0.623679 0.356067 0.420801
0.115568 0.696363 -0.0401153
0.527413 0.229842 0.993275
0.695276 0.111087 0.189826
0.222271 0.12537 -0.183358
0.693328 0.487431 0.30532
0.283975 0.112563 0.290423
0.122527 0.260861 0.405655
0.429916 0.118716 -0.180816
0.693953 0.463194 -0.0890437
0.200458 0.44989 -0.774016
0.4219 0.191726 -0.770157
0.238543 0.256179 0.411538
0.700212 0.216967 0.0237301
0.118041 0.378795 -0.100887
0.701804 0.388338 0.322445
0.623922 0.476755 0.41323
0.408215 0.698347 -0.103137
0.264931 0.120416 -0.0463828
0.253547 0.702738 0.271593
0.446717 0.618327 -0.776175
0.114571 0.390979 -0.107125
0.475042 0.111306 -0.0943739
0.624947 0.465553 0.415797
0.703049 0.12161 -0.0978085
0.240205 0.569761 -0.187629
0.445792 0.621824 0.992612
0.368855 0.174531 0.409235
0.278816 0.120793 -0.18092
0.697373 0.590321 0.402382
0.277884 0.227183 0.414888
0.413429 0.118156 -0.0997984
0.116961 0.697991 -0.0697964
0.27533 0.120295 0.404897
0.113985 0.442151 -0.176016
0.625709 0.397847 -0.773483
0.526554 0.214267 0.419694
0.699755 0.241583 -0.175328
0.215635 0.317725 0.997238
0.573613 0.547609 -0.766861
0.670754 0.696023 0.405543
0.114431 0.298471 -0.177144
0.422509 0.692131 0.321169
0.291626 0.592064 0.993117
0.69266 0.180887 0.405436
0.580205 0.278964 -0.770377
0.117966 0.241665 0.24557
0.120839 0.525467 0.288469
0.217161 0.120247 0.193656
0.568283 0.114008 0.398118
0.469789 0.204095 -0.774601
0.112754 0.124457 0.384914
0.207444 0.698325 0.177374
0.621449 0.338417 -0.191654
0.692185 0.568604 -0.0206138
0.613471 0.119058 0.0999373
0.519287 0.233218 -0.776099
0.405562 0.628454 -0.771504
0.627541 0.335912 0.409094
0.181595 0.459614 0.410574
0.55723 0.253975 0.993266
0.202035 0.320469 -0.192223
0.364003 0.699792 0.323353
0.457023 0.190966 -0.19371
0.657091 0.700438 0.402254
0.619646 0.116103 0.123083
0.186357 0.126112 0.406341
0.209919 0.697573 0.0253608
0.268609 0.69427 -0.0460929
0.629519 0.456959 0.413198
0.693699 0.166855 -0.182338
0.692707 0.111036 0.175282
0.571999 0.266683 -0.769439
0.645352 0.69112 -0.182849
0.297157 0.115393 -0.177452
0.120285 0.326118 0.305225
0.111653 0.20818 0.044705
0.113523 0.490999 0.398322
0.701359 0.693616 0.210192
0.696301 0.187328 0.403612
0.225038 0.271744 -0.188426
0.526859 0.116261 0.399322
0.488177 0.117067 0.304112
0.123417 0.490972 0.303906
0.693966 0.700664 -0.102717
0.19329 0.695108 0.403983
0.596781 0.302439 -0.771076
0.699815 0.574392 0.240037
0.623287 0.378789 0.991781
0.69853 0.699686 0.391802
0.298276 0.700025 -0.0745434
0.518786 0.111049 -0.0737838
0.208329 0.293533 0.409051
0.164648 0.694339 -0.183483
0.40053 0.630149 -0.763872
0.557146 0.562842 0.992218
0.700525 0.111867 0.206582
0.311549 0.600379 -0.771129
0.399952 0.622287 0.995999
0.694856 0.360612 -0.18226
0.11403 0.341965 0.319
0.120206 0.233104 -0.181463
0.568531 0.271996 -0.775108
0.222411 0.697324 0.402877
0.696852 0.370537 0.403521
0.613699 0.124456 -0.183534
0.117023 0.206118 -0.179343
0.608706 0.702107 0.0372236
0.695075 0.214715 0.0363401
0.546201 0.589786 -0.187407
0.112936 0.691713 0.035681
0.230352 0.700469 0.234298
0.298735 0.116478 -0.0743462
0.115178 0.696468 0.171895
0.117347 0.482683 -0.0854845
0.61762 0.359184 -0.776373
0.675644 0.121419 0.404495
0.601878 0.697752 -0.179156
0.305289 0.213595 -0.765507
0.695284 0.518319 0.292164
0.523061 0.118878 -0.180012
0.702151 0.504441 0.396068
0.533313 0.232222 0.990563
0.55826 0.233964 -0.190676
0.476867 0.185961 0.409628
0.226738 0.588095 0.216299
0.580077 0.694157 0.230916
0.348666 0.629473 0.411473
0.691246 0.559487 0.406092
0.112105 0.195446 0.152877
0.330198 0.698095 0.310929
0.324218 0.116336 -0.0845793
0.692191 0.240694 -0.0133708
0.697433 0.580512 -0.180844
0.185125 0.381522 0.411765
0.569878 0.254454 0.420364
0.609959 0.703174 0.0231639
0.696517 0.271999 0.276108
0.29771 0.689794 -0.184273
0.197071 0.428301 0.997675
0.201983 0.501049 -0.194066
0.27337 0.115174 -0.0599008
0.462682 0.20368 -0.775374
0.620441 0.610693 0.0643809
0.123329 0.212086 -0.183316
0.695208 0.11106 0.117815
0.621171 0.343692 -0.197265
0.261632 0.696365 -0.042286
0.113391 0.351752 0.323689
0.22639 0.278495 -0.193284
0.702275 0.221587 0.00798643
0.693936 0.611948 0.154638
0.615989 0.344842 -0.77113
0.699337 0.529043 -0.0612724
0.11266 0.401055 -0.175057
0.314768 0.614837 -0.192693
0.366586 0.122589 -0.0944423
0.123094 0.38264 0.319151
0.685279 0.701206 -0.172895
0.468751 0.609228 -0.776647
0.1179 0.607622 0.401318
0.599594 0.210935 0.0228037
0.701342 0.116664 0.31247
0.701933 0.690285 0.064436
0.545719 0.224528 -0.190253
0.194919 0.117966 0.125434
0.601524 0.277834 0.408751
0.426407 0.112731 0.326442
0.530514 0.113242 0.28837
0.605831 0.310438 -0.764619
0.222977 0.542251 0.41396
0.6213 0.505072 0.409602
0.364298 0.182426 0.412788
0.62403 0.439128 0.991686
0.692046 0.490207 0.406149
0.693159 0.564707 -0.182685
0.31705 0.599031 0.998494
0.607378 0.693529 0.15536
0.702201 0.170151 0.393336
0.701899 0.118471 0.324074
0.177033 0.443317 0.409986
0.690212 0.208144 0.0573441
0.193582 0.369962 -0.7706
0.355258 0.124436 -0.183185
0.691557 0.534059 0.277943
0.114948 0.196863 0.39745
0.120684 0.471939 -0.0872186
0.420939 0.115949 0.401908
0.560705 0.124028 0.25331
0.458942 0.631798 -0.185648
0.380906 0.628217 -0.192628
0.694311 0.616593 0.0997798
0.496267 0.598346 0.998851
0.608732 0.691666 0.147698
0.190386 0.112315 0.0560739
0.61449 0.629583 0.113052
0.24942 0.249272 -0.190814
0.252 0.700169 0.258641
0.498209 0.200308 -0.189913
0.698978 0.599523 0.200652
0.402827 0.622246 -0.775723
0.505501 0.122113 0.294095
0.291998 0.22781 -0.774584
0.701717 0.11779 0.383797
0.702643 0.278701 0.393073
0.360406 0.693576 -0.0934944
0.50998 0.591603 -0.775797
0.196873 0.12087 0.11795
0.597759 0.697722 0.402042
0.383309 0.638179 0.408599
0.413417 0.169898 0.408478
0.386027 0.112735 -0.173826
0.621078 0.484819 0.414123
0.15035 0.116328 -0.177005
0.618402 0.335437 -0.200089
0.702751 0.357604 -0.101204
0.357355 0.618011 0.995885
0.364535 0.115322 -0.0992681
0.637292 0.402875 0.410046
0.689651 0.702419 -0.0667702
0.114409 0.614712 0.0866582
0.613214 0.366529 -0.777298
0.26025 0.123692 0.259402
0.219406 0.279039 0.409581
0.119611 0.700764 0.0122189
0.436304 0.62301 0.993071
0.116153 0.117584 -0.0191141
0.701728 0.121915 -0.163962
0.694767 0.112601 0.312489
0.452647 0.622056 -0.194749
0.432848 0.123843 0.405945
0.592163 0.293549 -0.768973
0.591856 0.522428 0.99236
0.223884 0.518853 -0.77563
0.70071 0.266706 0.279525
0.695439 0.181866 -0.180506
0.505726 0.211358 -0.765462
0.112903 0.691306 0.273482
0.11312 0.456669 -0.173635
0.11844 0.25826 0.262517
0.263645 0.122335 -0.182499
0.545975 0.118181 0.40335
0.216265 0.702326 0.219928
0.693495 0.701494 -0.13913
0.113758 0.372954 0.327481
0.703209 0.111792 0.11459
0.115758 0.278894 -0.178627
0.236252 0.701436 -0.0287799
0.703042 0.690899 0.360169
0.111602 0.225271 0.00157635
0.202358 0.693191 0.141951
0.281418 0.124822 0.406152
0.691494 0.111989 0.342704
0.703372 0.119761 0.273751
0.608628 0.300214 -0.190554
0.692204 0.209551 0.0502219
0.503671 0.216504 0.995111
0.116118 0.510261 0.300531
0.113585 0.50174 -0.0814197
0.113303 0.154243 -0.172305
0.693197 0.110987 -0.0170865
0.351342 0.116703 -0.0931392
0.118236 0.205816 0.179065
0.444467 0.695171 0.318452
0.610632 0.355692 -0.776807
0.117301 0.173567 0.401155
0.611335 0.507304 0.414756
0.70091 0.261921 -0.0511039
0.512519 0.698001 -0.180555
0.341391 0.604616 -0.776536
0.703491 0.12245 0.233053
0.601586 0.306277 -0.767949
0.173702 0.689107 -0.184458
0.692718 0.530236 -0.0556222
0.694944 0.594356 0.0131087
0.114493 0.339903 -0.0960666
0.36804 0.192039 0.990027
0.606071 0.114608 0.040064
0.447191 0.184719 -0.187494
0.606107 0.220675 0.0182647
0.691311 0.701657 -0.0339819
0.580494 0.115482 0.400088
0.239327 0.566535 0.411224
0.462631 0.622274 -0.187707
0.287585 0.69768 -0.180732
0.60468 0.117049 0.193211
0.295522 0.700515 0.399178
0.697811 0.475373 0.403855
0.693574 0.387388 -0.182272
0.696805 0.699858 0.0149974
0.701726 0.172406 -0.170991
0.341469 0.120082 -0.0875801
0.69214 0.399158 -0.0963414
0.580701 0.279534 0.992914
0.612706 0.332028 0.990689
0.702841 0.393191 -0.105899
0.692752 0.245326 0.244334
0.200806 0.112582 0.17927
0.116576 0.69869 -0.0553521
0.693956 0.512679 0.295051
0.702761 0.495965 0.39454
0.115329 0.577515 0.399831
0.632297 0.695886 -0.180304
0.615882 0.623915 0.0942839
0.612806 0.701737 0.0643012
0.283245 0.689263 0.406577
0.124315 0.702057 -0.108269
0.691045 0.701908 -0.131769
0.112135 0.600772 0.00428212
0.701953 0.606119 0.200489
0.696904 0.479015 0.309457
0.591748 0.11363 0.0158559
0.691764 0.111411 0.276289
0.391137 0.182169 -0.191954
0.277897 0.702171 -0.0642339
0.116726 0.117957 0.0529783
0.3012 0.114083 0.297066
0.604234 0.211916 0.0281041
0.347121 0.204509 -0.774086
0.697461 0.466029 -0.179941
0.618547 0.400703 0.997283
0.119724 0.585705 -0.181145
0.42035 0.179626 -0.188353
0.22288 0.524535 0.988418
0.11301 0.501477 -0.175074
0.221188 0.529607 -0.198028
0.448648 0.690305 -0.184088
0.627216 0.398496 0.985275
0.442472 0.628002 0.418224
0.699848 0.355807 -0.178239
0.691976 0.385217 0.405818
0.617064 0.33533 0.418055
0.11354 0.119943 -0.139558
0.606034 0.526608 -0.189076
0.213533 0.303549 -0.768884
0.696948 0.698778 0.232042
0.621629 0.616907 0.131106
0.333547 0.61285 0.992907
0.696953 0.115117 -0.116451
0.480289 0.613609 0.989956
0.124089 0.604327 0.0459468
0.536295 0.701367 -0.0650515
0.128817 0.70191 -0.17374
0.70054 0.694336 0.247684
0.116119 0.414873 -0.18101
0.171459 0.699057 -0.180119
0.701486 0.206783 0.396955
0.690433 0.701932 -0.0185173
0.322119 0.119425 0.404235
0.19052 0.436844 0.989006
0.62589 0.355081 0.413637
0.633741 0.447608 0.411929
0.119277 0.627287 -0.182463
0.32427 0.602775 -0.774597
0.11633 0.295638 -0.0676767
0.356893 0.62509 -0.193274
0.112459 0.416381 -0.173661
0.35368 0.696309 0.402215
0.703628 0.118927 -0.0119384
0.679455 0.116127 -0.178802
0.605199 0.694607 0.0409287
0.512597 0.113109 0.396057
0.112224 0.61246 0.041085
0.702616 0.111307 0.0403379
0.205749 0.519114 -0.188824
0.141601 0.117446 0.402286
0.123255 0.52488 -0.0617052
0.621876 0.340193 0.412403
0.631827 0.374947 0.412391
0.111781 0.235216 -0.0163901
0.585659 0.11268 0.240432
0.117377 0.49825 -0.181965
0.560136 0.115811 -0.178873
0.298662 0.59431 -0.770677
0.615048 0.452881 0.998632
0.198311 0.337937 -0.767724
0.496235 0.215692 -0.775319
0.597011 0.69308 0.0192326
0.54769 0.700377 -0.0542656
0.123082 0.702423 0.371849
0.114625 0.120271 0.145209
0.230361 0.117113 0.402265
0.272635 0.699558 -0.179698
0.690538 0.255544 -0.183343
0.224014 0.694759 -0.00081492
0.220738 0.308744 -0.777142
0.702446 0.404137 0.326371
0.220666 0.524941 -0.766125
0.229012 0.289798 0.998862
0.702253 0.560886 0.394976
0.701973 0.393919 -0.170848
0.701294 0.118219 -0.148182
0.116207 0.318705 -0.179166
0.535698 0.701544 0.396758
0.336925 0.631551 -0.185558
0.702859 0.448329 0.325231
0.198772 0.412893 -0.775778
0.332449 0.184434 0.408965
0.492149 0.208071 -0.770769
0.573068 0.249681 -0.191733
0.694966 0.297522 0.404744
0.121686 0.701316 0.191277
0.385923 0.699527 0.326022
0.309187 0.11667 -0.0788796
0.628042 0.33517 -0.186742
0.214041 0.114575 0.196986
0.697507 0.530076 0.404065
0.596257 0.510284 -0.772086
0.113325 0.693277 0.242858
0.701705 0.480636 0.398366
0.581716 0.228496 -0.00677578
0.175633 0.369503 -0.185639
0.698769 0.115854 -0.160313
0.701875 0.117855 0.355711
0.117156 0.397316 -0.104462
0.574423 0.701455 0.255842
0.114477 0.138102 -0.173712
0.196178 0.117167 0.0740253
0.399081 0.638203 -0.185522
0.652414 0.702658 0.394434
0.120073 0.701427 0.106311
0.423683 0.120821 -0.0968932
0.202861 0.304845 -0.188652
0.112747 0.283559 -0.172277
0.364545 0.697598 -0.0977379
0.699044 0.317235 0.302247
0.512054 0.205631 0.41896
0.702463 0.294838 0.302092
0.691194 0.200099 0.110307
0.550491 0.118823 -0.0377288
0.695698 0.266978 0.404283
0.499691 0.613054 -0.186931
0.112728 0.27608 -0.170989
0.112231 0.516525 -0.172503
0.115616 0.432182 -0.102122
0.701187 0.192204 0.397079
0.545018 0.242706 0.991983
0.69745 0.327046 0.403377
0.64124 0.121791 -0.182737
0.113064 0.417038 0.327476
0.542665 0.12184 0.270332
0.325813 0.118733 0.304916
0.309966 0.215237 0.994674
0.120335 0.528867 0.403481
0.700978 0.697696 -0.139999
0.502219 0.612065 0.413053
0.677258 0.114621 0.398943
0.594528 0.125249 0.0376812
0.122005 0.512188 0.29506
0.518725 0.203656 0.413588
0.427515 0.183288 -0.191367
0.5633 0.567074 -0.190118
0.112802 0.595013 -0.00057066
0.264546 0.581258 0.41876
0.347146 0.692662 -0.183131
0.702211 0.621628 0.146262
0.113707 0.122934 0.177715
0.584466 0.114921 0.232736
0.692594 0.285043 -0.183125
0.115307 0.696579 0.300263
0.119781 0.11483 0.198546
0.116938 0.487375 0.402169
0.118575 0.442798 -0.0967336
0.551767 0.228596 -0.189867
0.463501 0.114051 0.31688
0.699712 0.609098 0.0374771
0.115839 0.245568 -0.0159902
0.692249 0.523539 -0.0604647
0.264539 0.70277 -0.0583343
0.116727 0.698896 0.0796937
0.118686 0.699466 0.0467475
0.385277 0.620656 -0.774913
0.702693 0.657609 -0.170122
0.229436 0.25662 -0.186399
0.535037 0.591437 0.415848
0.694395 0.112591 0.327463
0.695494 0.340226 -0.182267
0.237546 0.554156 -0.193705
0.692524 0.482873 -0.0811328
0.69668 0.663771 -0.181075
0.617476 0.466139 0.994435
0.702166 0.123074 -0.131472
0.333759 0.201784 -0.767238
0.699452 0.600911 0.0169911
0.114595 0.517308 -0.0713585
0.260508 0.116944 0.263008
0.691058 0.701724 0.260835
0.452568 0.694573 -0.0940328
0.701959 0.229776 -0.0130651
0.185841 0.47356 -0.189009
0.701879 0.693306 0.0964349
0.597527 0.297755 0.985569
0.343996 0.123435 0.405448
0.685149 0.120876 -0.181898
0.695082 0.591154 0.211401
0.690534 0.212527 0.181644
0.703478 0.118723 0.22275
0.207623 0.592751 0.19571
0.346491 0.695647 0.40263
0.216246 0.118689 -0.180367
0.582453 0.700205 0.237603
0.123093 0.701615 0.160202
0.112403 0.221823 0.0255229
0.323221 0.700713 0.399885
0.114194 0.605685 -0.176378
0.594778 0.114047 0.021846
0.46857 0.19584 0.98802
0.364446 0.625552 -0.193901
0.19123 0.699505 -0.177946
