-1 -0.990593 -0.829599
-0.187833 0.993026 1
1 -0.693428 0.999595
-1 -0.087512 0.999776
-1 0.633786 -0.993682
-0.937434 1 0.99257
0.069511 -0.99488 1
0.9989 -0.468179 1
0.994334 0.309512 1
-0.997469 -0.587996 -1
0.992302 -1 -0.939739
0.978369 -0.999231 1
-1 0.225119 0.989538
0.994666 0.644465 1
0.685173 0.991388 -1
-0.998034 0.383207 1
-0.991958 -0.953219 -1
-1 -0.993422 -0.871032
0.997877 -1 0.174409
-1 -0.016202 0.992453
-0.998404 -1 -0.496687
0.0511 -0.996213 1
-0.996101 -1 0.28601
0.469634 0.991987 1
-0.995167 1 -0.865341
-0.410497 1 0.990908
1 -0.735695 -0.989818
1 -0.99083 0.600883
-0.991136 -1 0.951288
-0.997864 1 -0.543695
1 0.560905 1.00008
0.994654 -0.054147 -1
1 -0.995689 -0.905561
0.999206 1 0.885352
1 -0.562652 -0.991451
-0.055727 -1 0.99722
0.995657 0.04202 -1
0.685135 -0.995162 -1
0.991188 -0.601712 -1
0.995978 1 -0.141613
-0.384393 0.988821 -1
0.242075 0.990356 -1
-1 -0.677335 0.992372
0.251898 -0.988595 -1
0.999354 0.974434 1
-0.737727 -1 -0.9929
0.992699 -0.645777 1
1 -0.999619 0.688804
0.285859 -1 -0.993715
-0.991717 0.302456 -1
-0.998406 1 0.026485
-1 -0.199233 -0.998807
-1 -0.996027 -0.956359
-1 0.10182 -0.992504
-0.762331 -0.995317 1
-0.95054 -1 0.99271
-0.507774 -1 0.99987
-1 -0.997935 0.906556
-0.935701 -0.996878 1
-0.999711 0.267021 1
-0.990846 1 0.429863
0.620966 -1 0.998818
0.945923 0.998147 1
1 -0.793393 0.992665
-0.997756 -1 -0.187315
0.997142 0.074425 -1
-0.997346 -0.218088 1
0.394376 -1 -0.99268
-0.996254 1 -0.900835
-0.990647 -0.274711 1
0.996874 -1 0.824487
0.955148 -0.992097 -1
-0.793619 0.998407 -1
-0.553673 -1 0.999727
0.309069 0.990974 1
0.453595 1 -0.995234
-0.031663 -1 -0.991356
1 0.012536 0.998219
-0.997369 -1 0.92201
1 -0.994588 -0.575096
-0.990643 1 -0.857164
-0.152279 -0.998955 1
-0.941473 -1 0.995936
-0.933164 0.999491 -1
1 0.814233 -0.991538
0.999692 0.218874 1
-1 -0.990984 0.459535
1 -0.990994 -0.087801
-0.879537 -1 0.994386
-0.990535 -1 -0.998422
-0.599996 0.993286 1
-1 0.189397 -0.991979
0.993693 0.135559 1
-1 0.054391 -0.991498
-0.057503 0.996996 1
0.996371 0.800765 -1
-0.440476 1 0.993228
-1 -0.931635 0.994654
0.703573 0.991859 -1
1 0.993091 -0.699225
-0.989894 -0.622444 1
-0.9982 -0.710464 -1
-0.99326 -1 0.910792
0.596506 1 0.992193
0.999202 0.945857 1
-0.990672 0.864695 1
1 0.997785 0.953744
1 0.533703 -0.99327
-0.347372 1 -0.990944
-1 0.996181 -0.515245
0.999033 -1 -0.629873
-0.990027 -0.009114 1
0.640915 -0.991815 -1
-0.9961 -1 0.159905
-0.996479 -0.720072 -1
0.016623 -1 0.995412
-0.99241 -1 -0.264676
0.280101 0.998234 -1
-0.994831 -1 -0.029409
1 -0.985034 -0.992179
-0.303259 -1 0.995888
0.812763 0.989417 1
1 0.3648 0.997706
-0.243121 -1 -0.991722
-0.999901 -1 -0.832494
0.930262 -1 0.996079
-0.292029 0.991882 -1
-1 0.95453 0.993729
1 -0.350945 0.99529
-1 0.458776 0.992401
1 0.332911 -0.998088
-0.8944 -1 -0.991095
0.989491 -0.620823 -1
1 -0.312863 0.992364
1 -0.990902 0.810247
-0.995029 -1 0.864036
0.992646 0.806133 1
-0.994828 -0.180507 1
-0.476389 -1 0.992884
-0.891044 1 -0.99903
1 0.299118 0.99156
1 -0.998068 0.722709
-0.995773 -0.438007 1
-1 -0.997937 -0.424533
-0.504022 -0.99777 -1
0.994833 -0.789794 1
-0.535483 -0.999881 1
-0.533611 0.994288 -1
0.96261 -0.996375 -1
-0.993752 1 0.469115
-0.998417 -0.494684 -1
-1 0.958799 -0.998418
1 0.429997 -0.992141
1 0.995419 -0.638605
-1 0.252502 -0.993479
0.452082 1 0.991371
-0.233681 -1 0.991076
1 0.914433 0.997317
-0.138467 1 0.993758
-0.791034 -0.995999 1
-0.989476 1 -0.220756
0.705481 -1 -0.993293
1 -0.991356 0.510932
0.314843 0.994245 -1
1 -0.995826 -0.354796
0.992301 0.023381 -1
-1 -0.344513 0.994265
0.262642 -0.991028 -1
-0.461395 -1 -0.994361
-0.997565 -1 -0.369762
-1 0.496135 -0.999688
-0.999985 -0.508415 -1
1 0.437396 0.999585
1 -0.995029 0.731579
-1 0.993587 0.956882
-1 -0.993869 0.945434
1 -0.094738 -0.998554
-0.158019 -0.991218 -1
-0.991992 0.402143 -1
1 0.994778 -0.303011
0.88343 -1 0.999393
-1 0.575363 0.991023
0.853099 1 -0.994374
-1 0.993327 0.084673
1 -0.99368 0.175429
-0.35331 -0.992386 -1
1 -0.852964 0.99584
0.99412 -1 -0.020444
-0.020916 -0.992185 1
0.079871 1 0.998969
-0.991252 0.389225 1
-0.989664 1 0.800981
-0.419935 1 -0.997274
0.99305 1 0.829751
0.037977 -1 -0.995003
0.791237 -0.997163 1
0.991876 1 0.18072
0.805214 -0.991789 -1
0.989688 1 0.236486
0.999642 -1 0.986658
0.590315 0.994483 1
0.998529 -1 0.903408
-0.988303 1 -0.969238
1 -0.99724 -0.801687
0.99332 -0.827713 1
-0.994147 -1 -0.953611
0.582558 0.990271 1
-1 0.877967 -0.991428
1 0.876843 -0.992157
-1 0.99682 -0.660447
-1 0.38734 -0.99869
-0.329437 1 -0.996745
-1 -0.891776 0.992074
-0.12846 1 0.990591
0.994756 0.580542 -1
-0.879723 -0.995737 -1
-0.999017 -1 -0.291297
-0.998015 -1 0.983675
-0.990487 0.49413 -1
0.051898 0.993235 1
-0.998507 -1 0.350917
-0.985373 1 -0.996234
0.991181 1 0.612893
1 0.626567 0.998929
0.107663 1 -0.997373
-0.997492 0.625659 1
-1 0.994224 0.481155
-1 0.992553 -0.161003
0.147182 1 -0.992226
0.997407 0.960088 -1
-0.993307 -1 0.845244
-0.998235 0.27519 -1
-1 0.999376 -0.410345
0.992177 1 -0.02471
1 -0.995901 0.614359
0.994668 1 -0.64016
0.991875 -0.717298 -1
-1 -0.999524 0.004654
1 0.381913 -0.995567
0.997819 1 -0.03345
0.421231 1 -0.997856
-0.99235 1 -0.210857
-0.359991 -1 0.992137
0.967745 -1 0.997056
-0.993938 0.357382 -1
-1 -0.991349 -0.275651
-1 0.868421 -0.994828
0.265193 0.994012 -1
-0.994719 1 0.628583
-0.537911 1 -0.997302
-0.380973 0.997541 1
-0.999235 1 -0.789597
0.893013 -1 -0.99147
-0.21587 0.991445 1
-0.993278 -0.448612 -1
0.991542 1 -0.345543
-0.531722 -0.990445 -1
1 -0.187996 -0.99408
-0.339134 0.999592 -1
-0.484491 -1 0.998769
0.994981 -0.539696 1
-1 0.467751 0.999234
0.49716 -1 -0.995364
-0.04008 1 0.992957
1 0.984321 -0.995657
0.207758 0.991155 -1
-0.992527 -1 0.99998
0.998376 1 0.292373
1 -0.999485 -0.078191
1 0.994038 -0.140612
0.720535 -0.992383 1
0.992009 -0.010372 1
0.996222 0.16639 1
1 -0.999976 -0.319626
0.999953 1 -0.225072
-0.993375 0.123434 1
0.454133 0.999236 1
1 -0.754568 0.994307
-0.444906 -1 -0.998543
-0.970141 -0.992392 1
0.991024 -1 0.062399
1 0.999157 -0.396729
0.421821 -1 -0.998627
-0.975319 1 -0.995667
-1 0.993953 0.508679
0.996954 1 0.651947
0.186182 1 0.990275
0.842251 0.99131 -1
1 0.998656 0.721762
-1 -0.964928 -0.994051
1 -0.993667 0.028236
0.902192 -0.996809 -1
0.339516 0.990807 1
1 -0.290431 0.999647
-0.682365 -0.995389 -1
0.95183 -0.991271 1
0.998619 -0.301437 1
-0.044861 -1 0.998828
-0.844824 -0.994761 1
1 0.288984 0.994111
0.99527 -0.145888 1
-1 -0.995081 -0.232639
-0.821164 0.993657 1
0.063597 1 -0.994174
-1 -0.713535 -0.992639
0.047249 -1 -0.99281
-0.995216 1 -0.830259
0.042672 0.992061 1
-1 0.992329 -0.676305
0.083353 -0.999466 1
-1 0.520275 0.997141
-0.536351 -0.991116 1
0.995354 0.838306 -1
0.994066 -1 -0.184647
-0.561723 0.992194 -1
1 -0.996309 -0.61117
0.999446 0.937497 -1
0.660072 -0.990498 1
-0.997815 1 0.591719
0.99604 -0.96568 1
0.70482 1 0.993224
0.050614 -0.997456 -1
1 0.587963 -0.988982
-0.992794 1 -0.321484
-0.819184 1 0.995539
-0.025115 0.996235 1
-0.994037 0.182004 1
-0.996991 1 0.407012
0.991973 -1 0.185643
0.994715 -0.738733 1
-0.173931 -1 0.994774
0.463742 1 -0.991387
1 0.996873 0.073936
-0.998416 -0.747514 -1
-0.992886 -0.256132 1
0.99569 1 0.452807
-0.996027 1 0.941757
-1 -0.527049 0.995553
-0.999659 1 0.735218
-0.75218 -0.992706 1
1 0.992165 0.818115
-1 0.687931 -0.998173
0.993312 1 -0.097569
-1 0.995229 0.322057
-1 0.998266 -0.743849
-0.997116 -0.392482 1
0.545433 -1 0.994516
0.992475 0.945037 -1
-0.999398 1 0.772581
-1 0.993631 -0.762963
0.885694 1 -0.999613
1 -0.993926 0.580541
-0.005168 -0.999813 1
0.998901 -0.688533 -1
-1 0.611274 0.992737
-0.992437 0.408179 1
1 -0.654299 -0.993813
-0.854893 0.990563 -1
1 -0.991908 -0.341857
1 -0.996502 -0.919239
-0.691998 1 0.996396
-0.99433 -1 0.517786
0.654507 -0.990929 -1
0.629824 0.99576 -1
-1 -0.996966 -0.631321
1 -0.197874 0.997084
0.998244 -0.661504 1
-1 0.994475 -0.964881
1 0.254013 -0.996148
-1 0.999793 -0.6103
-1 -0.643493 -0.992871
-1 -0.991141 0.560551
0.248488 -1 0.999265
0.585358 -0.998526 -1
1 0.8969 0.990996
-0.992284 0.539386 -1
-1 0.039678 -0.993885
-0.997927 1 -0.346628
1 -0.994792 0.295516
1 0.992273 0.873215
-0.991977 0.428539 1
-0.522543 1 0.992827
-0.009314 -0.996391 -1
-1 0.996705 -0.457271
-0.772548 1 0.999825
0.989765 1 0.295544
-0.990271 1 -0.152317
-0.996628 -1 0.487726
-0.132686 0.993165 1
-0.99986 -0.340248 -1
0.9941 -1 0.947302
0.7821 -0.992578 1
-0.158693 1 0.995951
-1 0.999883 0.114383
0.512024 -0.995615 -1
-0.772664 -0.991297 1
-0.995967 1 -0.008282
0.992619 1 0.372555
0.459165 -1 -0.999861
-0.999081 -0.789949 -1
-0.264591 0.994148 1
0.994941 0.907893 -1
1 -0.161404 0.999263
-0.682938 1 0.9959
0.217653 -1 1.00008
-1 0.994949 0.234727
0.223611 0.998555 1
0.995031 -0.944477 -1
-0.344149 0.991289 1
0.089041 -0.997375 -1
0.995492 1 0.780081
0.996336 -0.160534 -1
0.116092 0.999668 1
-1 0.829886 -0.995067
-0.950429 -1 -0.994007
-0.9932 0.416657 -1
-0.930183 1 0.997455
0.985557 -0.989942 -1
1 0.991604 0.535847
-1 0.996929 0.361606
-1 0.74324 0.996896
1 0.400467 0.999254
-0.991007 0.223856 1
-1 0.990877 -0.281575
0.523648 -1 0.993163
-0.183398 1 0.988942
-1 -0.997135 0.517562
1 -0.994657 -0.134709
0.412661 1 -0.996254
-0.93788 -0.992717 -1
-0.997827 -0.728989 -1
1 0.145454 0.999538
-0.855513 1 -0.992682
0.583234 -1 -0.993062
0.231766 0.991516 -1
-0.490055 -0.993065 1
-0.999319 1 -0.152829
-0.096583 -1 0.993805
1 0.127197 0.995413
0.939118 -1 0.999839
-0.436213 -1 -0.993721
-0.992428 0.399495 1
0.314582 -1 0.99932
0.992633 -1 -0.43172
-1 0.308839 0.993348
-0.99394 -0.924147 1
-1 0.364929 -0.989421
-0.990199 1 -0.277239
-1 -0.917047 -0.990377
0.99658 -1 0.833801
0.992519 1 0.059111
-0.450766 1 -0.999052
-1 -0.114186 -0.99972
1 0.789158 -0.998881
-1 -0.992755 0.126389
1 -0.99949 -0.334322
0.99091 0.491022 -1
0.402798 1 -0.993091
0.99538 -1 0.532151
-1 -0.245545 0.990926
0.998556 -0.242227 -1
1 0.576887 0.992603
-0.625202 1 0.99674
-0.777774 1 -0.996243
0.770865 0.993601 1
0.997694 -0.34117 1
0.957161 -1 0.99378
0.992419 0.547054 1
0.868644 -0.992617 -1
-0.919544 -0.991668 1
-0.914651 0.997141 -1
-0.047376 -0.995157 -1
-0.762254 -1 -0.999762
0.451355 -1 -0.994156
-1 -0.86094 -0.998989
0.717811 0.994512 1
0.780063 1 -0.999531
-0.943639 1 -0.997156
0.996073 0.364273 -1
-1 0.991303 -0.631027
0.994469 -1 0.559422
-1 -0.992048 0.054338
0.995898 -0.396763 1
0.993004 -0.91914 -1
-0.997428 -1 -0.045562
-0.994404 0.343224 1
0.89279 -0.99062 -1
-1 0.99368 -0.794955
1 -0.994941 -0.480601
-0.991638 1 0.206252
-0.991294 0.317614 1
-0.993736 -1 0.498409
-0.315486 -1 0.997356
0.9961 0.537672 -1
-0.637976 0.998102 1
-0.067579 -0.992427 -1
-0.854601 -1 0.99585
-1 0.991349 -0.152023
1 -0.048497 0.991585
0.821581 1 0.995127
-0.998033 -1 -0.718585
-1 0.999222 0.20097
0.997816 1 0.125046
-1 0.173222 -0.99868
1 -0.998657 -0.297793
0.994339 -0.900931 1
0.524641 0.997768 -1
0.365926 -0.995326 1
-0.994259 1 -0.142428
0.440033 -1 -0.999152
0.79592 1 -0.992318
-0.129658 -0.997594 1
0.995333 1 0.256487
-0.994111 1 0.524048
0.995574 1 0.987071
-1 -0.994178 0.926522
-0.430736 -1 0.992383
1 0.999491 -0.413221
0.074799 -1 0.996487
-0.214811 -1 -0.994927
1 0.265035 0.99398
0.99607 1 -0.299276
0.104705 0.9907 1
0.997372 1 0.023313
-0.502251 0.995831 1
1 -0.994225 0.982496
1 0.39185 -0.992395
1 0.418959 0.996833
0.229032 1 -0.999917
0.582501 -0.989013 -1
-0.70912 1 0.999814
-0.917073 1 -0.992008
-0.995765 -1 0.435637
-0.696274 1 -0.993074
1 -0.246587 0.995285
-0.260864 -0.993724 -1
-0.990184 0.668223 -1
0.044109 1 -0.99897
1 -0.135178 0.996577
-0.999037 1 -0.220112
1 0.224372 -0.999416
-0.994085 1 0.174925
0.237307 1 0.993801
0.9998 0.62019 -1
-0.132112 -0.999209 -1
0.393828 0.988017 -1
-1 -0.994886 -0.488765
0.374178 0.995513 1
-0.9966 -1 -0.433479
0.99056 1 -0.486986
-1 0.505088 -0.993366
1 0.99777 0.143749
-0.997428 1 0.279432
-1 -0.8572 0.997219
0.996392 -1 -0.147157
0.991458 -1 -0.88336
0.128274 -1 0.995973
1 -0.941668 -0.99409
-0.998308 1 -0.714072
-0.99987 -1 0.783968
0.991652 1 -0.245286
-0.991124 0.643599 -1
-1 -0.09562 0.999904
-1 0.223812 -1.00005
-1 -0.995653 -0.695613
1 -0.379042 -0.993434
1 0.996051 0.984992
-0.240596 1 -0.99261
0.992192 -1 -0.682175
-0.851449 -0.990317 -1
-0.252119 -1 0.996247
-0.681376 1 -0.998535
1 0.995018 -0.792438
-0.299798 -0.994233 -1
-0.547192 0.997372 1
-0.058062 -0.990763 1
-1 0.250977 0.996898
-0.718598 1 0.998687
0.763618 -1 0.996626
0.993004 1 0.744704
-0.082691 -1 -0.991883
0.997487 1 -0.800239
-0.991039 0.712631 1
-0.991547 -0.945705 1
0.993472 -0.767756 -1
0.992267 1 -0.650483
0.994393 -1 0.922031
1 0.349827 -0.991084
0.991938 -0.458245 1
-1 0.991825 0.638524
-0.990522 -1 0.106951
0.99049 -0.75007 1
0.994563 -0.453212 -1
1 -0.579459 0.998282
-0.989496 0.590057 -1
0.517007 1 0.991722
0.998489 0.149301 -1
-0.990873 0.959745 -1
-0.993005 -0.560701 -1
-0.998568 -0.029633 -1
0.009678 -0.999188 1
0.923636 -1 -0.99461
0.362942 1 0.991045
-0.06867 -1 -0.991556
-1 0.994079 -0.706706
-0.292727 -0.987984 -1
0.996502 -0.566553 1
0.993417 -1 0.299339
-0.118977 1 -1.00007
1 -0.992084 0.203118
0.237153 1 -0.992911
-1 0.9963 -0.830639
0.991217 -1 0.705752
-1 -0.133631 -0.993983
1 -0.994448 -0.1502
-0.24849 -0.992647 -1
-0.998813 -0.422126 1
-0.997272 -1 0.750924
-1 0.821334 0.993954
0.991848 0.278714 -1
1 0.998886 -0.499843
-1 0.941499 -0.990368
-1 0.914985 -0.995566
-0.992898 0.740455 -1
0.989217 -1 -0.565532
1 0.524611 -0.991131
1 -0.019157 0.999642
-1 -0.999644 -0.659704
1 -0.997477 0.929324
-1 -0.993611 0.434411
-0.993616 -0.519976 -1
0.995407 1 -0.253529
-0.990162 -1 0.019498
0.992613 1 -0.283955
0.99096 -0.78407 -1
0.995926 -1 0.054325
1 -0.888827 0.998854
-1 0.997081 0.416767
-0.994142 -1 0.065457
0.652619 -1 -0.990228
-1 -0.993434 0.300801
0.998436 -1 -0.839418
0.992211 0.480359 -1
0.996229 -0.095042 1
-0.343114 -1 -0.998289
-0.997785 -1 0.073846
-0.811474 -1 0.997732
-1 -0.160491 0.998926
-1 -0.992725 0.348928
1 0.996913 0.043989
0.994276 1 -0.867999
0.625566 -0.991393 1
-0.993279 -1 0.739605
-1 -0.7251 0.999412
0.990646 1 0.769619
0.72374 0.999694 -1
1 0.998891 -0.080385
0.992657 0.689206 1
1 -0.906177 -0.993598
1 -0.992731 0.82436
-0.994301 -0.543449 1
-1 0.991859 -0.023163
0.990654 -0.213855 -1
1 -0.989817 -0.300656
1 -0.70113 0.997041
-0.799278 1 0.99703
0.991275 -0.794295 -1
-0.296896 1 0.998796
-1 -0.99478 -0.713068
0.991449 1 0.356342
-1 0.999509 0.329069
0.998392 -1 0.778031
1 0.647259 0.995741
1 0.92893 0.999665
-0.99375 -1 -0.971436
1 0.316274 -0.992705
1 0.995741 0.129927
1 -0.153302 0.996649
-0.682067 -1 0.990706
0.160568 0.994414 -1
-0.992655 0.52873 1
-0.989954 0.268592 1
0.991218 1 0.976417
0.999062 -0.835151 1
1 -0.038068 0.997077
-1 -0.816939 0.991827
-0.64786 -0.993636 1
1 0.163676 -0.991982
0.990415 1 -0.932129
0.392327 -1 0.99342
1 -0.489382 0.998497
-1 -0.994091 0.767649
-0.991733 -0.101938 1
0.60678 1 -0.999292
0.180995 -0.989592 1
-0.992907 0.075317 1
1 0.991331 -0.286849
-0.279909 -0.99531 -1
0.992141 0.653484 -1
-0.471559 -0.993321 -1
0.995803 -0.043391 -1
0.997435 -1 -0.751207
-0.13666 0.996693 -1
1 0.995965 -0.81561
0.998243 -0.70844 1
-0.993716 1 -0.737906
-1 0.81049 0.994436
-0.998125 0.959267 1
-0.994067 1 -0.644819
-1 0.083248 -0.995244
1 -0.991178 -0.833626
0.914097 -0.99694 1
-0.530462 0.990196 1
1 -0.485689 -0.998468
0.995745 -1 0.026754
0.994555 1 0.274064
-0.126695 1 -0.993854
1 -0.752052 -0.996576
-0.989608 0.376414 1
-0.591749 0.987345 -1
0.264198 -0.992703 1
0.469577 -1 -0.991972
0.997511 -0.405174 -1
0.066831 -1 -0.997325
0.112924 -0.991423 1
-0.999286 1 -0.732469
-0.238832 0.994974 -1
-1 -0.952408 0.991167
0.994668 0.502165 1
0.416026 -0.990575 1
-0.186349 0.991147 -1
1 -0.99722 -0.284137
0.995323 0.130865 -1
1 0.990543 0.579538
-0.680904 -0.993247 1
-0.997657 1 0.514499
0.990116 -0.173111 1
1 -0.994438 -0.252775
0.992447 -1 -0.388991
-0.994503 -0.975937 -1
0.337781 1 0.998675
1 -0.99312 -0.267302
0.994519 0.194416 -1
-0.994575 1 0.19119
0.992414 -1 -0.19711
1 -0.999403 0.066536
0.200786 1 -0.993086
0.296485 -1 -0.994009
-0.993006 -0.739761 -1
0.99208 -0.865728 1
1 0.99241 -0.268266
0.991152 1 0.919913
0.995769 1 0.302223
0.989021 1 -0.784826
0.991969 0.609566 -1
-1 -0.393827 -0.992611
0.42886 -0.993072 1
0.497475 0.995976 -1
-1 -0.455466 0.993369
0.520128 0.996394 1
-0.581001 -0.997619 1
-1 0.61751 -0.997498
-0.992744 0.017686 -1
-0.281436 -0.998777 1
0.815903 -1 -0.992911
-1 0.997341 0.469693
0.97014 0.992785 1
1 -0.374136 0.988684
-0.091874 -1 -0.996206
-0.99157 0.312081 -1
0.748913 -1 -0.996955
-0.99798 0.706213 -1
-0.722246 -1 0.997754
-0.199212 -1 -0.993379
-0.999539 -0.813018 1
0.031988 0.997396 1
0.511719 -1 -0.995578
0.73236 -1 -0.990247
-1 -0.994421 0.958196
1 0.997797 0.685061
-0.992989 -0.959004 1
0.430106 1 0.99003
-0.193536 -0.995261 -1
-0.527808 0.999156 1
-0.999129 1 -0.09949
0.994506 -0.132952 1
-0.935469 0.989789 -1
-0.994999 0.543844 1
-0.373034 -1 -0.992779
-0.997368 -0.605021 1
0.996055 -0.246848 1
-0.994802 -0.475167 1
-0.994727 1 -0.522582
-0.489427 -1 -0.999181
0.990805 -0.830408 -1
1 -0.518157 0.992065
-1 -0.991934 0.161961
0.994332 0.654401 1
0.998268 0.31229 -1
-1 0.992743 0.565385
0.959753 -0.99733 1
1 0.998907 0.389112
0.126774 -1 -0.998565
0.538953 -0.995179 -1
-0.362221 0.997837 -1
-0.994206 1 -0.369723
0.997784 -0.141473 -1
-0.948658 -0.994786 -1
-1 0.965508 -0.99284
1 0.248041 0.989814
-1 0.003551 -0.996781
1 0.999086 -0.165919
0.851565 -1 -0.99617
1 -0.992057 -0.169451
-1 0.346854 -0.992361
1 0.98968 0.863308
-0.997664 -0.596916 -1
-1 -0.999465 0.469428
0.37469 -1 -0.994891
0.016563 -0.992703 1
0.569729 -1 -0.991759
0.996731 -1 0.382099
-0.734949 -0.995985 1
1 -0.789339 -0.992498
1 0.170324 -0.996661
0.507422 -1 0.996203
1 0.083015 -0.996921
-0.578143 1 -0.995605
1 -0.686208 -0.990745
-0.118762 -1 0.992611
1 -0.543794 0.994561
-1 0.317997 0.990376
0.993387 0.462282 -1
-1 -0.424612 0.993025
-0.463105 -0.996081 1
-0.147017 -0.990791 1
-1 -0.998182 -0.410992
1 -0.056122 0.997483
-1 0.721163 0.994237
-0.926108 -0.996037 -1
-0.286889 -1 0.993557
0.995661 1 0.508324
0.332405 -1 -0.998768
-0.995406 -0.380093 -1
0.995775 1 -0.75317
0.99483 1 -0.814058
1 -0.999528 0.545504
1 0.026876 -0.998432
0.995642 0.409263 1
0.666615 -1 -0.99096
0.547167 -1 -0.997439
-0.995317 -1 0.933119
-1 0.993603 -0.238475
-0.628967 -0.997623 1
0.999527 -1 -0.005148
-0.997884 1 -0.676887
-1 -0.997664 -0.089405
0.801422 1 0.994653
0.090646 0.993832 -1
0.993221 -1 -0.811169
-0.762168 -1 0.995594
0.251498 0.994579 -1
-0.200158 0.995751 -1
-1 0.993842 -0.169311
-0.120776 -1 -0.992852
-1 -0.999111 0.871024
0.997762 0.122313 -1
0.695947 -0.992187 -1
0.172439 -0.996973 1
1 0.997943 -0.916929
0.991252 -0.270021 -1
-1 0.99069 0.71687
0.998747 -1 -0.694105
-0.996483 -0.158767 -1
-0.991702 1 -0.499409
1 -0.994843 0.049175
-0.992867 -0.5873 1
-0.087392 0.99427 1
0.101566 1 -0.991967
-1 -0.990471 -0.430647
-1 0.72321 -0.992814
-0.997004 -1 -0.272975
0.494761 -0.99826 1
0.142054 -0.991846 -1
-0.999751 0.714167 1
1 -0.704576 -0.992587
0.991003 0.719788 1
-0.198046 0.993348 1
-0.998835 1 0.080569
0.994567 0.176291 -1
0.371999 1 -0.994918
-1 0.077611 0.997284
-0.992864 0.94463 -1
-0.633872 -0.992763 -1
0.533362 -0.990368 1
-0.2614 -1 0.990063
0.997601 1 0.489282
-1 0.992764 0.537082
0.991134 1 0.95772
-1 0.927516 -0.998105
-0.990679 -0.272631 -1
0.523965 -0.996862 1
0.99123 -1 -0.160446
-0.092596 -0.991159 1
1 -0.993382 -0.375593
0.506132 1 -0.992269
1 0.160043 0.990754
0.993605 0.76329 1
0.994451 0.742646 1
-0.998179 1 0.963006
1 0.874539 0.993393
-0.995981 -0.701391 1
0.911937 0.992684 1
-0.629764 0.998439 -1
0.436153 0.997321 -1
0.608416 -1 0.995292
1 0.99865 -0.727048
0.792645 -0.99428 -1
1 -0.999726 0.463825
-0.621443 -1 -0.993115
-1 -0.545407 -0.990618
-1 0.992018 -0.041274
-0.992249 -1 -0.298431
1 0.996043 -0.387328
0.993491 -0.039364 1
1 -0.645285 -0.997125
-1 0.008172 0.995919
0.998896 -0.748128 1
-1 0.997819 -0.593387
1 0.727657 0.995801
0.673438 0.995539 1
0.609021 -1 -0.999433
0.997893 -1 -0.381787
-0.996692 -0.830357 1
0.995096 -0.073769 -1
0.012094 -0.992469 -1
-1 -0.860303 -0.98907
-0.999788 -0.871825 -1
0.993671 0.724044 -1
-0.999434 -0.403857 1
0.815343 -0.996074 -1
-0.997131 0.253925 -1
0.298862 1 -0.997745
0.017974 0.995174 -1
0.810682 -0.999298 1
-0.990647 -1 0.090803
-1 -0.439204 0.997267
-0.020549 -1 0.996849
-1 0.795383 -0.996842
0.283546 0.996762 1
-0.995129 1 0.249539
0.627064 1 0.992279
-0.995051 -1 0.593874
0.990893 0.373184 -1
0.993676 -0.177174 -1
0.50155 1 0.998374
0.992352 1 -0.891711
-0.999526 1 -0.490109
-1 0.994019 0.652109
0.290777 -0.996406 -1
-1 0.333916 -0.999975
1 0.994394 0.515627
-0.229693 1 0.998464
0.995549 -1 -0.858404
-1 -0.476197 0.993558
0.997724 1 0.499565
-0.176136 0.996395 1
0.907941 0.996648 -1
0.249373 -0.998048 -1
-0.95361 0.995255 1
-0.487909 1 0.997323
0.992947 0.044014 1
-1 0.108475 0.999445
-0.500668 1 -0.997979
1 0.494104 0.992531
-1 -0.998831 -0.446816
1 0.674865 -0.992861
1 -0.104921 -0.996313
0.992129 -1 0.399601
0.32947 0.990144 1
0.990161 -0.570645 -1
-0.697366 -0.989262 1
1 -0.178985 -0.99773
-0.72731 1 0.995653
0.996156 -1 0.160363
0.367562 0.997705 -1
1 0.485715 -0.990657
0.991579 0.705262 1
1 0.523792 0.998077
-1 0.326254 0.999572
0.995527 -0.908919 -1
-1 0.998735 0.262258
-1 -0.998799 -0.677118
-1 0.996474 -0.143047
1 0.99546 0.919528
-0.027268 -0.991405 -1
1 0.996213 -0.245723
-0.99702 0.142508 1
-0.99025 1 -0.203107
1 -0.493195 -0.994871
-0.999452 -1 -0.731678
1 -0.822894 0.988793
-1 0.757503 -0.992529
-1 0.997945 0.910476
0.360833 0.991235 -1
-1 0.41281 0.999421
-0.565098 0.994178 1
-1 0.200057 -0.990832
0.994095 1 0.047072
0.99753 -1 0.363309
0.991985 1 -0.418864
0.484219 0.995305 -1
-1 0.999666 0.43533
-1 0.908361 0.996417
-1 0.995673 -0.583397
0.992 -0.26956 1
-0.999794 1 -0.421729
1 -0.998296 -0.046153
-0.994753 -1 -0.415944
1 0.031445 0.994426
-1 -0.996078 -0.342476
-0.997659 -0.849601 1
0.692227 0.992977 1
1 -0.994276 0.420954
1 -0.989754 0.304363
0.201752 -1 0.993053
-0.348877 -1 0.994501
-1 -0.999338 -0.88443
-0.999094 1 -0.505336
-0.99564 1 -0.692772
-0.498963 0.992499 -1
-1 -0.997486 0.494421
1 0.659596 -0.99927
-1 -0.607955 0.99456
-0.694341 -1 -0.996343
-0.995056 0.91173 1
1 0.994149 0.262073
0.996193 1 -0.08881
-0.997308 -0.142456 -1
0.338349 0.999864 -1
0.994494 -1 -0.92215
1 -0.968573 0.99484
0.991504 1 -0.043511
-0.992624 -0.578203 1
-0.998071 0.988517 1
-0.7285 -1 -0.991907
-1 -0.876546 0.99309
0.994183 1 0.735883
0.046814 0.992827 -1
-0.570464 -1 0.990845
0.993123 -1 -0.402383
-1 0.035454 0.998714
-0.994353 1 0.611069
0.993521 1 -0.721419
1 0.995162 -0.405377
1 0.999378 0.851887
-0.991901 -0.80209 -1
-1 0.432095 -0.992676
-0.328165 0.999575 1
-1 -0.612393 -0.999306
1 -0.715709 -0.989944
0.997478 0.268547 1
-1 0.995187 0.785697
-0.998766 -1 -0.701868
-1 0.99188 0.46141
1 0.999756 0.413998
0.991608 1 0.213811
0.996671 -1 -0.975786
-1 0.993614 -0.939388
-1 -0.994378 -0.61265
0.991837 -1 -0.313553
0.996697 1 0.635478
0.995942 1 0.322917
0.273709 -0.997264 1
0.992316 0.21614 -1
0.992436 -0.416834 1
-0.993806 -1 -0.13431
-0.113378 -1 0.999603
0.942803 -0.993016 1
1 -0.991053 0.519561
-0.831367 1 0.991398
-1 0.678284 -0.999911
1 -0.26902 -0.998861
-0.997844 -0.94174 1
0.994337 0.421178 -1
1 -0.807151 -0.998602
0.991478 0.450187 -1
-1 -0.992525 0.138382
-0.309349 -0.992442 -1
1 0.993504 -0.010083
0.202434 -0.997168 1
0.749024 -0.993024 1
-1 0.26126 -0.997725
-1 0.074648 -0.995753
-1 -0.992098 -0.458
-0.991428 -1 0.247043
0.680234 -1 -0.99819
0.152852 0.997148 1
0.420277 1 0.997731
0.426315 -1 0.994814
-0.583633 0.99708 -1
-0.990168 -0.401146 1
-1 -0.989204 0.37389
0.39992 1 0.995801
-0.74158 -1 0.994626
0.235243 0.996724 1
0.626672 -0.995714 -1
0.194605 -0.995394 1
-0.996611 1 0.487776
0.997714 1 -0.26292
0.75615 -0.996529 -1
0.756687 -1 0.990513
0.852054 0.998511 1
0.997103 1 0.170727
-0.717036 1 -0.998425
1 0.796484 0.99237
0.26641 0.991347 1
1 0.992401 -0.125058
-0.991522 0.685907 -1
0.713863 -0.990496 -1
-0.995799 0.855487 1
1 -0.992651 -0.960272
0.741011 1 -0.991628
0.993482 -0.439999 1
-1 -0.772831 0.999879
1 -0.999326 -0.260493
0.036962 0.991267 -1
1 0.996871 0.17801
0.813976 -0.99122 1
-1 0.952048 -0.991073
1 -0.462394 -0.999218
0.140716 -1 -0.991147
-0.995113 0.948913 1
0.999571 0.009755 -1
0.467469 -1 0.994366
-0.991494 -0.899665 1
0.996462 -1 -0.967076
-0.743444 1 0.995821
-0.992387 -0.230347 -1
-0.995484 0.91073 -1
-0.992957 -1 0.824069
-0.998447 0.577696 1
0.995191 -0.208327 1
-0.601163 0.991109 -1
0.994991 0.288788 -1
1 0.997902 -0.622171
1 -0.46727 0.991446
-1 0.993667 -0.085548
-1 -0.99973 -0.227014
-0.996381 -0.046801 -1
1 -0.179341 0.992326
-0.971287 0.994174 -1
0.992984 1 -0.621559
-0.999238 1 -0.91111
0.639891 1 -0.993373
0.993254 0.096682 -1
0.991213 -0.677526 1
-1 0.899057 0.995762
-0.287782 1 0.995508
0.117441 -1 0.999801
-0.873602 1 0.993459
-0.996306 1 0.532849
-0.0381 -1 0.992976
-0.27908 1 0.992759
0.998643 0.998656 -1
-0.010453 0.994149 -1
-0.859256 -0.995994 -1
-0.991659 1 0.899739
0.831013 0.998853 -1
-0.990442 1 -0.906875
-0.995465 0.578493 -1
1 -0.99144 0.842691
0.988941 -0.935955 -1
-1 -0.662312 -0.999646
-1 0.767783 -0.999313
1 -0.609197 -0.993057
-0.990469 -1 -0.832444
-0.99348 -1 -0.711238
0.963843 1 0.993829
0.868775 1 0.99295
1 -0.992101 -0.714713
1 0.992644 0.794096
-0.993268 -1 -0.782236
0.99786 0.79656 1
0.999788 -0.33789 -1
0.990045 -1 0.518469
1 0.754117 0.994478
0.99312 0.679898 1
1 0.993936 0.636128
-0.440888 0.993467 -1
-0.707857 0.991618 -1
-0.997846 -1 -0.866573
0.569224 1 0.998429
-0.853951 -0.994109 1
-1 -0.981215 -0.995182
-0.989259 0.189542 1
-0.067552 1 -0.998751
0.998677 -1 0.588645
-0.231555 -1 -0.996984
-0.374775 1 -0.99817
0.996904 1 -0.741101
-0.99318 0.870117 -1
1 -0.904548 0.993444
0.039846 1 0.99822
0.995778 0.853515 -1
-0.998126 0.724688 -1
0.847542 -0.998383 1
1 -0.23642 0.994759
0.996103 -0.435002 -1
-0.998604 -1 0.168669
-1 0.137339 -0.992221
1 0.859448 -0.995859
-1 0.990243 0.055058
1 -0.99135 -0.541121
0.657981 -1 0.998862
-0.455394 1 0.995035
1 0.718505 0.99787
0.999718 -0.767961 1
-0.248359 0.992773 -1
-1 0.993712 0.703686
-0.995486 -1 -0.142704
-0.999383 1 0.182539
0.606989 1 0.996127
-0.189276 -1 -0.994633
-0.999591 0.449837 -1
1 0.997772 0.06534
0.996909 -0.94763 1
-0.993603 0.124225 -1
-1 -0.340145 -0.991304
0.409428 -0.999152 1
-0.997888 0.033282 -1
-1 0.129675 -0.998602
0.955807 1 -0.9923
0.993063 1 -0.764479
0.670867 1 -0.997426
-0.894753 1 -0.989898
-0.521618 -0.994911 -1
-0.997407 1 0.299729
-0.991572 -1 -0.643582
0.191886 1 -0.998458
-0.999926 -0.989657 1
-0.995678 -1 0.199017
0.996721 1 -0.694266
-0.518669 -0.99684 1
0.440541 -1 0.998848
1 -0.994223 0.792783
-0.360981 -1 -0.990492
1 -0.997215 0.155793
-0.996001 -0.1869 -1
-1 0.98994 0.761827
-0.742356 1 -0.994379
0.351519 1 -0.991738
-1 -0.993175 -0.982524
0.998146 -1 -0.732253
-0.255207 0.99919 1
-1 0.990786 -0.01321
-0.992507 1 0.970584
1 -0.29636 -0.996042
-0.85816 0.992746 1
0.214926 -0.997665 -1
-0.836923 0.991137 1
-1 0.302066 -0.998875
0.991244 0.538443 1
1 0.992402 0.910702
-0.992242 1 -0.453072
-1 -0.0504 -0.99488
-1 -0.509689 0.99516
-0.993656 -0.036188 1
0.878723 1 -0.997942
-0.990687 -0.249708 -1
1 0.540604 0.990911
0.992804 -1 0.312074
-0.218465 -0.992318 1
0.695412 1 0.994518
-1 0.998482 0.58361
1 0.353835 0.999055
0.990899 -1 -0.214042
-1 0.477576 0.994359
-0.997863 -0.124528 -1
-0.831633 -1 0.991258
-0.099607 1 0.991298
1 -0.077415 -0.994105
-0.997169 0.495283 1
1 0.630613 -0.993694
0.739672 -0.993735 1
-0.998987 -1 0.115304
0.736542 -1 0.995698
1 0.999813 0.581033
0.971432 -0.997187 -1
1 -0.476753 -0.99496
-0.734655 0.999681 1
0.22576 1 -0.990979
-0.695967 0.993545 1
-0.998472 -0.068928 -1
0.996677 0.90673 1
0.995804 -0.479186 -1
0.991715 1 -0.078762
-1 -0.994104 -0.894467
-1 0.023137 -0.998879
-1 -0.999672 0.215445
-1 -0.991175 -0.856622
-1 0.992562 -0.91399
0.695028 -1 0.999361
-1 -0.702972 0.995032
0.149959 -0.998484 -1
-0.485652 -0.991627 -1
1 -0.037462 -0.998335
0.99204 -0.956371 1
-1 -0.110976 0.999228
-1 -0.997736 0.732494
-0.699075 0.995877 -1
-0.99657 -0.682515 1
0.99785 -1 -0.819554
0.990417 1 0.390223
-0.365259 -1 0.998706
-0.999561 1 0.451139
0.936937 1 0.996758
0.995097 -0.758181 1
0.582344 1 -0.992072
0.135157 -0.997835 1
1 -0.936892 0.990342
-0.483616 1 -0.996255
-0.99525 -0.315452 -1
1 0.993213 -0.866737
-0.941824 -1 -0.99077
1 -0.863857 -0.992388
-1 -0.997464 -0.56835
-0.994635 -0.853541 -1
0.898351 1 0.999173
1 -0.989252 -0.39453
0.6439 -1 -0.996788
0.990253 -0.423954 -1
-1 -0.013427 -0.992515
-0.390228 1 0.991333
0.987302 -1 0.043827
0.999712 0.263629 -1
-1 -0.992892 -0.070893
-0.998707 -1 0.576434
-1 -0.280284 0.992227
-1 -0.28891 -0.99514
1 0.991558 -0.050426
-1 0.099561 0.995355
1 0.452382 0.991724
-0.483256 0.993019 -1
-1 -0.994692 -0.320155
0.999553 -1 -0.534472
1 0.710745 -0.993228
-0.636884 -1 0.991944
0.998617 -1 0.504169
-0.135895 1 -0.993796
-0.15307 1 -0.990788
-1 -0.465676 -0.997431
1 -0.999719 -0.553206
-0.958117 -0.996796 1
-0.582925 0.994758 1
-0.99821 -1 0.097859
1 0.993139 -0.507178
-0.890388 0.999764 1
-0.573881 -0.9975 -1
0.994274 1 -0.1726
0.993869 -1 0.409114
0.998781 0.977483 -1
1 -0.112861 -0.999777
0.162672 -0.990518 1
-0.257789 1 -0.996006
0.756437 1 -0.990783
-1 -0.989803 -0.41317
0.782981 0.99072 -1
1 -0.772548 -1.00002
-1 0.995989 0.628511
0.996928 0.64409 -1
-0.991133 -0.809551 1
-1 -0.535582 -0.995466
-0.00799 1 0.994085
-1 0.990439 -0.34739
-1 -0.993205 0.224206
-0.995405 1 -0.397492
-0.608126 1 -0.995692
0.649993 0.991033 1
0.5966 -0.990867 1
-0.991894 0.250915 1
-0.940013 0.993958 1
-0.995305 -0.791693 1
1 -0.949376 0.992718
1 -0.915103 0.994726
1 -0.01893 -0.993276
-0.990772 -1 0.729756
-0.990322 -1 -0.180221
0.993458 1 -0.503769
1 -0.997306 0.63499
-0.998632 0.607965 1
-0.116871 1 0.995994
-0.992193 0.238212 -1
-0.540789 -1 0.991833
1 -0.985247 0.99419
-1 0.378621 0.992104
-0.800332 -1 0.990797
1 0.993939 -0.483331
-1 0.400104 -0.999199
0.144042 -1 0.996904
1 -0.989914 0.87629
1 -0.999558 0.669345
-0.520919 -1 0.991749
0.082299 0.991158 1
-0.995193 1 0.927496
0.265969 1 0.997457
-1 -0.545643 0.992747
0.71089 -1 0.997329
-0.995946 -1 0.834374
-0.509377 1 0.998709
-0.068742 1 0.995981
1 0.469584 0.996929
-0.998668 -1 -0.177944
-0.037296 -0.991282 -1
-0.264029 -1 0.999647
0.625165 -1 -0.991291
0.09945 1 0.991337
-1 0.538211 0.990504
1 0.454034 -0.998228
0.990609 0.44555 1
0.081844 1 0.989939
0.383399 1 -0.992113
0.356297 1 0.99865
-0.994142 1 -0.249404
0.99552 1 0.349519
-0.994586 0.872827 1
0.239657 -0.994166 1
1 -0.189181 0.992965
-1 -0.305522 0.999467
-0.621122 0.994534 -1
-0.992398 -0.236646 1
0.207295 1 0.994025
-1 0.992311 0.025679
1 -0.993273 0.091536
0.276655 1 -0.993233
-1 -0.99421 0.96983
-0.999409 -0.766553 -1
-0.243519 -1 0.992999
1 0.778706 -0.996854
0.250716 -1 0.991791
-0.993847 -1 0.762117
0.247353 0.995695 1
0.989766 1 -0.054531
-0.608847 -0.993419 -1
-0.917854 1 0.993615
0.799437 -0.993352 1
-1 -0.99516 -0.795321
-1 0.124939 0.994467
0.994284 -1 0.646615
-0.995025 -1 0.61925
-0.994893 -0.287472 -1
-0.992532 -1 -0.39747
1 -0.994088 -0.873013
-0.995214 0.758575 -1
0.251411 1 0.996472
-1 -0.103834 -0.990297
0.990712 -0.682572 -1
-0.993818 0.484711 -1
-0.990219 -0.11785 1
1 0.257379 0.998116
-0.990284 -0.820108 -1
-0.990697 -0.596528 1
0.993917 0.693275 -1
-1 0.995186 0.600603
1 -0.994833 -0.097541
1 -0.993961 0.861169
-1 0.342787 0.995403
-0.516169 -1 -0.998947
-0.997411 -1 0.801149
0.998237 0.858154 1
-0.262309 -1 -0.997099
1 -0.996981 -0.640876
-1 0.492104 0.992133
-1 -0.991007 0.786848
-0.274298 0.996055 1
-0.998292 -1 0.644667
0.728687 -1 0.991055
-1 -0.998074 -0.598518
-1 0.587068 0.993375
1 0.78102 0.99501
-0.998965 1 0.269676
0.347065 -1 -0.992183
1 -0.999169 0.193398
-0.998953 0.189876 1
-0.989718 -0.713157 -1
-0.303519 0.994577 -1
1 -0.99877 -0.39212
-1 -0.997214 0.714732
-1 -0.991369 0.422494
0.474762 0.994884 -1
0.66521 1.00007 1
1 0.298586 -0.998305
0.728354 -0.997876 1
0.042211 -1 0.997954
-1 0.99604 0.549029
-0.995957 1 0.599865
-1 0.990947 0.352502
-0.991566 1 -0.303343
-0.994798 1 -0.749158
1 0.989675 -0.106532
-1 -0.177092 -0.992077
-0.997195 1 0.892994
0.913942 -1 -0.991165
0.781605 -0.998796 -1
1 0.991721 -0.067889
-0.996887 1 0.706509
-0.995271 0.276418 1
0.991125 1 -0.599888
0.997194 0.837495 1
1 -0.999749 0.222207
-0.998466 0.630219 -1
-0.995173 -0.360431 -1
0.99898 1 -0.489785
-1 -0.989861 -0.747316
-0.993716 1 -0.660116
-0.989937 0.881695 1
1 -0.366207 -0.996432
1 0.361022 -0.99225
-1 -0.998976 0.887922
-0.621557 -1 0.997193
-1 0.994876 -0.212358
-0.875411 0.991353 -1
-0.999568 -0.882759 -1
1 -0.477435 0.996117
-0.995303 -1 -0.09843
0.792242 1 0.993302
0.99935 1 0.822821
0.991845 1 0.718688
0.999541 -1 -0.447874
-1 -0.999154 0.675109
-0.42606 -1 -0.992926
0.213305 1 -0.990357
0.990951 -0.87052 -1
1 -0.867436 -0.999531
0.016406 -1 -0.993846
0.759187 1 0.993613
1 -0.686042 0.993975
0.282117 -0.991467 -1
-1 -0.728069 0.990679
-1 0.99624 0.344095
-0.463146 -0.996906 -1
1 0.324811 0.99776
1 -0.038346 -0.989349
0.996909 -1 -0.485776
0.15573 -0.996528 1
-1 -0.994165 0.59403
1 -0.993531 -0.766673
0.98441 -1 0.994078
-1 -0.590491 0.991381
-0.540923 1 0.992672
-0.181934 -0.988738 -1
-0.996236 0.364084 1
0.811475 1 0.992156
1 -0.823636 -0.992656
0.587889 1 0.993648
-0.998972 -0.645907 -1
-1 -0.995753 0.080881
1 -0.508007 -0.996706
-0.990554 -0.765235 1
0.160349 -1 -0.994456
0.991609 0.157694 1
-0.997107 0.258499 1
0.995022 -0.636181 1
-1 0.184422 0.992812
1 0.99297 -0.564398
-0.80795 1 -0.998234
0.988505 -1 -0.998432
-1 -0.517937 -0.995609
-1 -0.993128 0.853351
-0.995048 -1 -0.161667
-1 -0.995059 -0.9378
0.740492 -1 -0.996359
-0.996789 -1 -0.539481
-0.393948 -0.991654 -1
-0.989646 1 0.036783
-0.275459 -0.99299 1
-0.922871 1 -0.998036
-0.991521 1 0.215688
-0.14876 -0.990497 -1
-0.99102 -0.144189 1
-1 -0.500891 0.993839
-0.924468 -1 0.991659
-0.991617 0.193459 -1
1 -0.067449 0.996
0.996748 -0.63791 -1
0.876707 -0.998963 -1
-0.99162 -0.865344 -1
1 0.998054 -0.672475
-0.365556 0.997331 1
0.536137 1 -0.991366
-0.991805 -1 -0.309036
1 0.992746 0.02413
-0.9993 -0.518669 1
-0.999711 -0.105047 -1
-0.599912 -1 -0.990546
0.988717 1 -0.359555
-0.99683 1 -0.185512
0.996945 1 -0.369508
-0.997832 0.847231 1
-0.995772 -0.15236 1
-0.753049 0.998537 1
0.056676 1 0.991736
1 -0.997673 -0.985552
-0.864286 -1 0.993235
0.89247 1 0.991422
0.996624 -0.072851 1
-0.993974 1 0.063296
0.997247 0.072809 1
0.854017 -0.991011 1
0.999219 1 -0.713123
-0.997055 1 0.133329
0.996404 -0.302796 -1
1 0.303971 0.999644
0.612292 -0.995251 1
-0.820327 -0.996769 -1
-0.996315 1 0.505126
-0.913396 -0.997316 -1
-0.922015 0.994405 1
1 -0.526594 0.992463
0.749756 0.993174 -1
1 0.346248 -0.999929
-0.999567 -1 0.187611
0.99896 0.111575 1
-1 0.147783 -0.996536
-0.74348 -0.997914 -1
0.997089 1 0.247422
0.99727 1 -0.629939
-0.642831 1 0.994392
0.999918 0.498266 -1
0.50881 0.99687 -1
1 -0.99248 0.501327
-1 0.286156 0.997702
-0.997313 -0.047243 1
-0.786711 1 -0.991219
0.615443 1 -0.991464
-1 0.467488 -0.996827
1 -0.993454 0.676361
0.991107 1 0.541116
-0.991689 0.440379 -1
-0.945829 1 0.998261
1 0.970785 0.993481
-1 -0.999474 0.232953
-0.993964 -0.755057 -1
0.190681 1 0.998419
0.880049 0.991456 1
1 -0.999492 0.329227
-0.478536 1 0.99926
0.387757 0.995738 -1
-0.293396 1 -0.999359
0.232613 -1 -0.992974
0.932126 -1 -0.993765
-0.995557 -1 0.385575
-1 0.995999 0.06899
0.732436 -0.991732 -1
1 0.53081 0.991672
1 -0.995242 0.213284
-1 -0.997146 -0.514786
0.996343 1 0.812105
1 -0.999647 -0.409111
-1 0.99195 -0.850634
-0.926132 -0.997908 1
1 0.280819 -0.99838
-0.14589 0.995406 -1
1 0.770581 -0.999856
0.992766 -0.413629 -1
-1 0.17531 -0.989851
0.064616 -1 0.996922
0.994342 0.86473 -1
-1 -0.992083 -0.521716
-0.82409 0.993305 -1
-0.562598 -0.990294 -1
-1 0.996368 0.291092
0.993474 1 -0.67436
-0.994435 1 0.813066
-0.999206 1 -0.559493
0.033659 -0.997663 1
0.999509 -0.396324 -1
-1 0.996859 0.155454
-1 -0.890711 -0.999358
-0.994963 -1 0.054797
-1 0.999506 0.219377
-0.993667 1 -0.123125
0.989269 1 0.910431
-0.406728 -0.996144 1
-0.992933 -0.464712 -1
-0.574069 -1 -0.994638
1 0.988076 0.992201
0.998509 -1 0.138153
0.990119 1 -0.193968
0.996657 -0.911868 1
1 0.993646 -0.025479
0.002343 1 -0.99131
-0.30782 1 -0.997397
-1 -0.690004 0.989928
0.543637 0.9932 1
-1 0.943821 0.994584
0.022522 1 0.990567
1 -0.994966 -0.069547
1 0.991838 0.675951
0.990772 0.438271 -1
-1 -0.25576 0.9928
-1 -0.142317 0.990079
0.997635 1 0.926627
0.991235 -1 -0.546478
-1 0.996964 -0.178415
-1 0.513702 -0.991152
-0.861903 -1 -0.99504
-1 -0.999034 0.817539
-1 -0.4833 0.999211
-1 -0.413688 0.996269
1 0.989255 0.617735
-0.995249 -1 -0.37784
-0.88255 0.99804 -1
-1 -0.686785 -0.993904
0.323051 1 0.995643
0.998018 0.577991 1
-0.999476 -0.802072 1
-0.159022 -1 -0.995776
-0.081631 -0.989438 -1
1 0.207112 -0.99243
1 0.998051 -0.572941
1 -0.870991 0.997351
-0.262543 0.993095 -1
0.184995 0.993902 -1
0.994981 1 -0.439065
-0.99642 1 -0.360995
0.99446 -0.496223 1
-1 -0.997712 -0.108026
0.677379 -0.994769 1
-0.303832 -1 -0.996053
-0.993716 -1 0.182775
1 -0.997377 0.563878
-1 -0.406365 0.99134
-0.998316 1 0.098837
1 -0.998445 0.103642
-0.733416 0.99025 1
1 0.992758 0.431234
0.180195 -1 0.994341
-1 0.990019 -0.609448
1 -0.999371 0.598151
-0.229909 0.997771 -1
-0.384573 -0.992856 -1
-0.991988 -0.168854 -1
-0.202349 1 -0.994703
-0.509727 -0.99172 1
-1 0.67382 0.999726
-0.992396 -0.692941 1
-1 0.681969 0.991244
1 -0.161357 -0.994811
-1 -0.947556 -0.994278
-0.06286 0.99399 -1
1 -0.357748 -0.996736
1 -0.992732 0.122116
1 -0.078441 0.99455
-0.992637 -1 0.531931
-0.990123 -1 -0.355217
-0.167912 1 0.998583
-0.990029 -0.984331 -1
0.993243 0.402753 -1
-0.088987 -0.999024 1
1 -0.993459 -0.418419
-0.997777 -0.206105 1
-1 0.859763 -0.999822
-0.066755 1 -0.989972
-0.039565 -1 -0.999556
-0.491872 1 -0.990678
-1 0.841538 0.994446
-0.615382 1 0.990678
0.993588 -0.198795 1
-0.992055 0.418511 1
-0.999245 0.409593 -1
1 -0.99873 0.749563
1 -0.998825 0.698287
-0.765968 0.992784 1
0.99413 -1 -0.528215
0.284381 1 0.993251
-0.52697 -1 -0.990438
-1 -0.824823 0.995807
0.252399 -1 -0.992602
-1 0.997067 0.008132
-1 -0.184796 0.994683
0.920439 1 -0.997973
-0.406901 1 0.999725
0.997488 -1 0.084558
1 -0.995695 -0.950277
-1 -0.350552 -0.994198
-1 -0.991414 -0.686175
0.916715 0.999736 1
-0.760737 -0.990686 -1
0.849286 -1 0.993104
1 -0.991748 0.226556
-1 -0.715798 0.996126
0.990407 0.346153 -1
-1 -0.404249 -0.993109
0.998262 -0.557469 1
0.366271 0.988709 1
0.996657 1 0.937784
0.992029 1 -0.151169
-0.999891 0.885702 -1
-1 0.502979 0.998641
0.992628 -1 0.764258
0.924775 0.990393 1
0.153503 -1 0.992555
0.904292 -1 -0.990929
-1 -0.992294 0.799948
0.578185 1 0.992041
-0.156749 -0.990763 1
-1 -0.191318 0.990104
-0.250301 1 -0.988527
0.509241 1 0.995419
-1 -0.996181 -0.580044
-0.154824 -1 0.992555
0.996937 0.985731 1
0.713113 0.994886 -1
-0.996936 0.549136 -1
-1 -0.991521 0.48705
-0.302589 0.99087 1
1 0.99737 -0.349011
0.998886 1 -0.984995
-1 0.669165 -0.998596
0.635722 -1 -0.990728
-1 0.363548 -0.999063
-0.994151 -0.632344 1
0.876953 1 0.99581
0.993675 0.87469 1
0.994678 0.230241 1
0.996611 0.454144 1
0.996131 -0.494185 -1
-0.84032 1 -0.999512
-0.999928 -0.007962 1
1 -0.99561 -0.402213
-0.634337 -1 -0.993863
-0.608503 0.995114 -1
0.861519 0.995395 1
0.612584 0.997534 1
-1 0.995738 0.495123
-0.246122 1 0.996051
1 -0.724348 0.99615
0.578435 0.997326 -1
-1 -0.990015 0.500877
-0.998026 -0.133393 1
0.938184 -1 0.990641
-0.397955 -0.99692 1
1 -0.991734 0.571566
-0.284777 -1 -0.99536
0.954836 -1 -0.997656
1 -0.994372 0.379625
0.410064 1 0.997306
-0.995441 -1 -0.468877
-0.99053 1 -0.873093
-0.999407 0.561478 1
-0.998688 -0.368097 -1
-0.998906 0.511264 1
-0.966251 -0.996219 -1
0.489083 -0.991004 1
-0.073253 -0.999753 -1
-0.997673 -1 -0.360745
0.997015 1 0.903101
-0.995067 -0.265776 1
-0.995883 1 0.072176
1 -0.620314 -0.994734
-0.991668 -1 -0.693131
-0.417514 1 0.996259
-0.65923 0.998991 1
-1 -0.922031 0.988696
0.180553 -1 -0.995125
-0.995563 -0.026391 1
0.868583 1 -0.992957
-0.802361 -0.993441 -1
1 0.922 -0.994922
-0.995371 0.825086 -1
-0.225652 -1 0.999557
0.392981 1 -0.993181
-1 -0.992805 -0.757178
1 0.99337 0.712897
-1 -0.991278 0.637102
0.999754 1 -0.883997
-0.994693 1 0.837852
0.833946 -0.989976 -1
1 -0.172412 0.999236
0.993985 0.382718 -1
0.598514 0.989004 1
0.673283 -0.993584 -1
1 -0.998376 -0.196805
-0.995431 -1 -0.741598
-0.757427 0.999947 -1
0.492483 1 0.991237
-1 0.991548 0.121346
0.99311 1 -0.965903
-0.165736 -0.997452 -1
-0.995017 0.921986 -1
1 0.995406 -0.958391
0.995198 0.205587 -1
0.994979 -1 0.264954
0.832554 0.990343 -1
1 0.992955 0.466633
-0.415568 -1 0.995851
0.201759 0.990774 1
-0.812117 0.992915 -1
-1 0.73364 0.995988
1 0.991921 -0.590276
-0.55044 1 -0.999359
-1 0.307295 -0.990947
-1 -0.269813 -0.998966
0.990528 -1 0.815866
-0.357311 1 -0.994769
-0.998246 -1 -0.348993
-0.186439 1 -0.992432
-0.999844 -0.664276 1
-1 -0.998263 0.26157
1 -0.99703 -0.113827
-0.995147 0.69619 -1
-1 -0.252441 -0.998495
1 0.999765 0.436982
0.139003 0.992137 1
0.533389 0.994081 1
1 -0.995888 0.037091
-1 -0.998503 0.037751
-0.983069 0.995754 -1
1 0.998493 -0.468312
0.02262 -0.99632 -1
0.997638 -0.005767 -1
-1 0.270586 -0.994406
0.932864 0.994964 1
1 -0.820149 0.998238
-0.992387 0.003575 1
0.566455 -0.999336 -1
-1 0.176455 0.997953
-0.994849 0.200299 1
-1 -0.7359 -0.997543
-0.990987 -1 -0.208865
0.99192 -0.287824 1
-1 -0.038485 -0.98936
-0.52574 1 -0.998499
0.75684 -0.997114 1
-0.990773 -1 0.426102
-0.998358 1 -0.237282
0.990503 0.483618 1
-0.99481 -0.533961 -1
-0.995981 -0.057535 1
-0.597404 -1 0.991347
-0.381254 1 0.992871
-1 0.24324 0.99157
-1 -0.995443 0.029277
-1 0.992047 -0.877443
-1 -0.078051 -0.997512
1 0.702446 0.99339
0.765143 1 -0.999867
-0.272789 0.993142 -1
0.998933 1 -0.523851
0.993554 1 0.695169
0.992526 1 -0.946322
0.99649 0.570398 -1
-1 0.990671 -0.445493
1 -0.999402 0.240695
-0.994097 0.930377 1
0.438113 1 0.999559
0.562522 -0.996867 1
-1 -0.166923 0.991951
1 0.992838 0.381916
0.372772 -1 0.996639
0.057491 -1 -0.996716
1 -0.928417 0.994205
0.993413 -0.368783 1
-1 0.058007 -0.999564
-1 0.551739 0.998169
-1 -0.991679 -0.306249
-0.994316 -0.414571 -1
0.775545 1 0.999593
-1 0.999557 -0.33093
-1 -0.998527 0.372783
0.990504 -1 0.986313
1 -0.997311 -0.468953
0.998418 1 0.083122
-1 -0.051416 0.994677
-1 -0.919697 0.998384
0.998095 -1 -0.781334
1 0.99341 0.758496
-0.993185 -1 0.322657
1 -0.25574 0.997311
-1 -0.361255 0.992109
-0.343895 1 0.994179
0.583413 -0.999061 1
0.037412 1 -0.992638
-1 0.704827 0.998226
0.994359 -1 -0.463494
-1 0.993905 0.917948
0.954587 1 0.997264
-0.998935 1 -0.293561
-0.997151 0.817361 1
0.995906 -1 -0.418164
-0.996788 -0.553691 -1
-0.994138 1 0.149046
-0.59264 1 -0.994703
-0.86607 0.996975 1
0.715291 -1 -0.991752
-0.989659 0.487467 1
-0.996235 0.56538 -1
-0.997815 -1 -0.152966
0.999278 -0.061621 -1
0.993308 -0.317295 1
-0.810802 1 0.992756
-0.952444 1 -0.997144
-0.95976 1 -0.991007
1 0.994164 -0.358201
1 0.99346 -0.941799
0.647075 1 0.998927
-0.35694 0.992809 1
-0.767813 1 0.991802
1 -0.932214 -0.992196
0.641792 -0.995764 1
-0.55503 -1 -0.998979
-1 -0.26071 -0.996571
0.992384 -1 -0.244897
1 -0.994195 0.851453
0.992411 -0.802754 -1
0.994753 -0.726606 -1
-1 0.359296 0.995396
0.997764 -0.626312 -1
-1 -0.992499 -0.195308
0.999372 -1 -0.22098
0.322564 -0.999375 1
1 0.991886 0.009216
0.382251 -0.997878 1
-0.128214 -1 0.992784
-0.80104 1 -0.992181
-0.994554 -0.701301 -1
0.205273 -1 -0.997249
1 0.035796 -0.995952
-0.043624 0.995209 -1
0.999867 1 -0.771232
-1 -0.996527 0.839419
-0.458163 1 -0.999663
-0.41673 -0.993898 1
0.315097 -0.992624 -1
0.989284 1 0.516283
-0.683902 -1 -0.993887
0.993409 -0.056909 1
1 0.990508 0.854456
0.995681 -1 -0.040202
1 0.591185 -0.997836
-0.391223 -0.990701 1
-0.998414 -1 0.852482
-0.993736 -1 -0.792565
1 0.478189 0.992841
-0.686565 -1 0.999168
-0.383795 0.998531 -1
-1 -0.990322 0.250487
-1 0.634088 0.990403
1 0.698892 -0.998732
0.996779 -1 -0.76858
-0.992609 -0.526332 1
0.993206 -1 -0.74045
-0.990906 0.059263 -1
-1 0.993031 0.372922
0.993546 1 -0.387136
1 0.990809 -0.454535
0.478488 1 0.993286
-0.10806 -1 -0.998839
0.026498 1 -0.994457
-1 -0.204401 -0.990737
1 -0.992664 0.147018
0.992555 1 0.893106
0.723923 -1 -0.993446
-0.999022 1 -0.626818
-1 -0.071151 0.993911
-0.874736 0.991627 1
-0.992325 1 -0.193719
0.406107 0.995427 1
1 0.994177 0.11804
-1 -0.230422 0.991256
0.290471 -0.997001 1
-1 0.998135 0.822645
0.313807 -1 -0.997523
1 -0.732321 -0.997708
-0.84197 -0.998205 -1
0.992251 -1 -0.08683
-0.568666 0.998889 -1
-0.264924 -0.991846 1
1 -0.994604 0.398073
1 -0.996222 -0.601137
0.99715 -0.521824 -1
-0.866111 1 -0.993678
1 -0.389619 -0.994193
0.995572 0.059615 -1
-1 0.590621 -0.992925
1 -0.855663 -0.998648
-0.990112 1 0.770751
1 0.990519 0.725951
0.935813 0.994428 -1
0.638739 -1 0.995442
-0.992289 -1 0.586117
-0.999181 0.989578 -1
0.091053 0.993563 1
0.999273 -0.604091 -1
-0.997973 1 0.565419
0.306418 -1 -0.992653
0.685377 0.997684 1
-1 -0.991652 -0.204711
-0.997011 -1 -0.316873
1 0.475902 -0.992157
0.990909 -1 -0.957083
-1 -0.997872 -0.813847
0.713144 1 0.995908
0.655926 1 -0.990303
0.722722 -0.997573 -1
-0.479984 -1 -0.990919
0.023935 0.992169 1
-1 -0.064109 0.998853
0.993212 0.985783 -1
-0.438073 -0.991137 1
1 -0.994433 0.949732
1 0.999324 -0.834083
-1 0.998516 0.864189
-1 -0.995298 0.270871
-1 -0.996226 0.390993
1 0.994593 0.843474
-1 0.996565 -0.840482
-0.085629 0.997218 -1
-0.999201 -0.279286 -1
-1 -0.99795 -0.052735
0.989879 -1 0.506814
-0.992634 -1 -0.170117
0.995043 0.286619 1
0.99223 -0.122824 1
1 -0.995913 -0.023243
0.347581 -0.994292 -1
-0.415039 -1 -0.993934
-1 -0.988051 0.710997
-0.961393 -1 0.99259
0.739991 1 0.995925
0.996572 -1 -0.277582
-1 0.99449 0.402772
0.997467 1 0.793675
0.998804 0.829655 -1
-0.835382 -0.996946 1
-0.175588 -1 -0.994636
-0.887859 -1 0.999926
0.995187 -1 -0.848774
0.692837 -1 -0.99904
-0.065417 -0.997768 1
-0.324638 -0.996377 -1
-1 -0.781456 0.998592
1 0.332114 0.991957
0.712746 -0.999349 -1
-1 -0.992575 -0.47098
0.999528 1 -0.600644
-0.076868 -0.991244 1
-0.95668 -0.99773 -1
0.834749 -1 -0.990934
-0.999785 -0.986106 -1
0.994763 -0.809405 1
1 -0.998433 0.355035
-1 0.061063 0.996032
1 0.991306 -0.708318
0.999407 1 -0.845402
-1 0.809714 -0.996879
0.990008 -0.10686 1
-1 0.449529 0.997219
0.118285 1 -0.993218
-1 -0.996718 -0.034565
1 0.229211 -0.992018
-0.998519 1 0.798525
0.356567 -0.999105 1
-0.568634 1 -0.991139
0.995038 -1 -0.352734
-0.018228 -1 -0.99945
-1 0.801966 0.998228
-0.588138 -1 -0.991076
-1 -0.582126 0.99639
-1 0.550398 -0.99148
-1 -0.58379 -0.993618
-1 -0.75476 0.99544
0.480201 0.999241 1
0.990796 -0.672144 -1
1 -0.293278 0.991309
-0.994679 0.739303 1
0.994824 0.473587 1
0.79749 0.995333 1
-0.830435 0.998866 -1
-1 -0.994499 -0.532957
1 -0.584927 0.990533
-0.993745 1 -0.080943
-1 -0.997476 0.061755
-1 -0.234805 -0.995524
-0.990485 0.089602 1
0.757667 0.997069 1
-1 -0.141799 -0.991901
-0.33033 -0.990661 1
-0.998278 -0.835078 -1
-0.991778 -0.742203 1
0.9991 1 -0.929283
-1 0.996701 0.684732
0.070053 1 0.995211
-1 -0.990732 -0.221492
0.993386 0.277237 1
-0.991795 1 -0.107015
-0.999527 0.657702 1
-0.999294 0.641736 -1
-0.990922 -1 -0.513178
0.999039 0.551442 -1
-1 -0.997259 0.989523
0.831592 0.988181 1
0.917822 -0.995915 -1
1 -0.996233 -0.78489
-0.451896 -0.99994 1
0.842382 0.993195 1
-1 0.995687 0.613459
-0.519994 1 -0.99292
-1 0.993866 0.135589
1 -0.776289 1.00008
1 -0.950642 -0.997034
-0.903064 1 0.992554
1 0.991172 0.057244
-1 0.428557 0.996738
1 -0.312382 -0.992396
-0.999461 0.301957 1
1 0.203019 0.997663
-1 -0.999551 -0.560819
-0.991302 -0.782638 -1
-0.993429 -1 0.304282
-0.465272 1 -0.994761
-1 -0.483197 -0.992669
0.991828 -1 -0.634516
0.099135 -1 0.991688
0.996041 0.892713 -1
-1 -0.99651 0.658749
-1 -0.998891 0.144545
-0.991825 1 0.716218
-1 -0.238532 0.995552
-0.401187 -1 0.992707
-1 0.974193 -0.993263
-1 0.524085 -0.997505
1 0.994763 0.626097
-0.788197 -1 -0.999889
-0.990669 0.132756 1
-1 -0.991456 -0.175724
0.3185 1 -0.99321
0.98417 0.999656 -1
0.938413 1 -0.994427
-0.632936 1 -0.990743
-1 -0.865794 0.998409
-0.992394 -0.201543 -1
-1 -0.99144 -0.540597
-0.995736 -1 -0.980805
-0.493474 0.995786 1
0.822926 1 -0.996293
0.951811 0.99188 1
-0.539186 -1 -0.995548
0.994607 -1 0.581128
1 -0.432437 0.997309
0.999162 -1 0.708031
-0.884791 -1 -0.998403
0.996435 -0.289858 -1
