0.591949 0.11635 0.400765
0.123965 0.112914 -0.0638
0.653367 0.121952 -0.183005
0.425678 0.623864 -0.77562
0.547046 0.579466 -0.192092
0.437927 0.626217 -0.189397
0.701376 0.361803 -0.099933
0.701037 0.460132 0.318022
0.250216 0.692635 0.249169
0.242558 0.280032 0.999878
0.700573 0.118507 -0.162106
0.604049 0.129687 0.067281
0.699832 0.385879 0.320371
0.604891 0.693378 0.167973
0.542733 0.587913 -0.188464
0.456922 0.696826 0.317361
0.698639 0.11096 0.008764
0.472859 0.202803 -0.773432
0.121961 0.701997 0.354217
0.676769 0.116947 0.401929
0.191939 0.352628 0.41482
0.117024 0.566463 0.256415
0.699627 0.607995 0.183765
0.440515 0.183836 -0.189986
0.11956 0.257734 -0.032483
0.123169 0.561628 0.256144
0.475748 0.620597 0.415497
0.605052 0.471377 0.999316
0.305695 0.698827 0.300276
0.20016 0.114986 0.155094
0.12203 0.237198 -0.005915
0.673929 0.119047 -0.181438
0.452034 0.115826 -0.177823
0.275873 0.244737 0.99845
0.40898 0.628765 -0.19483
0.617941 0.32781 -0.192863
0.694729 0.701391 0.120541
0.599336 0.60004 0.193276
0.117629 0.517251 0.294834
0.123741 0.702031 0.026402
0.122953 0.113371 -0.077184
0.498954 0.605232 -0.197352
0.380228 0.641192 0.407841
0.209531 0.312652 0.987872
0.471693 0.120594 -0.182895
0.233774 0.266176 -0.191093
0.698537 0.392964 0.40268
0.608868 0.122346 0.136193
0.250499 0.260097 -0.773215
0.620486 0.379718 -0.77596
0.115786 0.131697 -0.176405
0.369011 0.634295 0.410388
0.601688 0.699538 0.024987
0.698532 0.111959 0.224437
0.111598 0.203993 0.0581
0.699009 0.114877 -0.147041
0.117051 0.698764 0.083517
0.699802 0.355006 0.399847
0.598379 0.702056 0.215154
0.697739 0.231806 -0.003912
0.368236 0.182062 -0.188927
0.609729 0.693427 0.062485
0.489787 0.11793 -0.180359
0.113713 0.375328 0.3981
0.602609 0.701438 0.197823
0.457549 0.622098 -0.767793
0.568993 0.262389 0.989174
0.45627 0.114783 0.318171
0.701974 0.566372 -0.174244
0.31292 0.117524 -0.079649
0.617097 0.702185 0.123105
0.700948 0.513728 -0.074835
0.696724 0.700251 0.102593
0.701641 0.343505 0.396368
0.221381 0.516512 -0.774988
0.694742 0.367564 0.314636
0.123503 0.579819 -0.012513
0.12076 0.118837 -0.175771
0.114589 0.269031 0.398427
0.455257 0.194118 0.991621
0.697953 0.310285 0.298812
0.594429 0.537418 -0.191445
0.383023 0.625558 0.992649
0.321358 0.618311 -0.19058
0.531629 0.594106 0.41545
0.117842 0.593877 0.204244
0.699682 0.111606 0.173473
0.1137 0.393261 -0.177394
0.191705 0.113933 0.076587
0.596169 0.697539 0.014092
0.622649 0.703015 0.103811
0.700514 0.154426 0.401092
0.511344 0.698074 -0.075566
0.515481 0.69235 0.405961
0.58469 0.693099 0.222436
0.699577 0.526205 -0.064099
0.185921 0.117009 -0.178831
0.610724 0.12137 0.092176
0.112571 0.366972 0.394375
0.116903 0.319849 -0.083664
0.582594 0.111821 -0.012576
0.562194 0.238873 0.412588
0.612973 0.118762 0.077524
0.47814 0.701348 0.317189
0.116601 0.314124 -0.180147
0.115121 0.696459 -0.081922
0.700685 0.460899 -0.096179
0.580913 0.124112 0.405345
0.113748 0.695976 0.362405
0.470293 0.121787 0.404503
0.689221 0.698608 0.402559
0.63677 0.121051 -0.182268
0.388895 0.175161 0.409719
0.559648 0.253287 0.990011
0.696689 0.567681 -0.181048
0.225059 0.546094 0.413263
0.114712 0.266039 -0.177245
0.4128 0.117544 0.403822
0.628424 0.347571 0.410236
0.117687 0.699257 0.005479
0.697045 0.19846 0.111801
0.580342 0.261953 -0.195144
0.323346 0.192987 -0.187156
0.500949 0.59494 0.998862
0.499458 0.701517 0.398633
0.212034 0.300706 -0.195574
0.589256 0.697694 0.000658
0.70364 0.119243 -0.003512
0.11324 0.629739 -0.175626
0.42821 0.112998 -0.103878
0.499098 0.699131 -0.180374
0.618005 0.367553 -0.776703
0.428503 0.113884 0.323681
0.700645 0.217038 0.397504
0.702289 0.117334 -0.100087
0.613013 0.335785 0.99233
0.201139 0.700544 0.16802
0.638267 0.690654 0.406444
0.698104 0.198302 0.131038
0.695252 0.568228 0.242124
0.616208 0.623113 0.090609
0.386265 0.116073 -0.179854
0.287892 0.114402 0.398174
0.181805 0.360352 -0.187083
0.185898 0.377826 -0.194558
0.114903 0.612267 0.128484
0.289278 0.219268 -0.193078
0.499502 0.614346 0.411694
0.460248 0.184387 0.410969
0.115093 0.697294 0.006831
0.117912 0.660254 0.40263
0.193725 0.700453 0.088999
0.123076 0.113026 0.029031
0.200833 0.698718 0.15144
0.123905 0.608502 0.105092
0.701613 0.61026 0.028675
0.113865 0.203461 -0.174227
0.118577 0.236292 -0.00292
0.370947 0.112038 0.323483
0.381174 0.693402 -0.182741
0.699364 0.202289 0.16394
0.122991 0.11341 0.102048
0.417428 0.119579 0.318799
0.611269 0.121459 -0.182479
0.121581 0.585386 -0.002335
0.118641 0.115412 -0.017073
0.312305 0.206699 -0.191055
0.119717 0.308091 -0.182639
0.361227 0.616312 0.998311
0.290571 0.588244 0.995881
0.114784 0.503346 -0.07911
0.695382 0.564667 0.404106
0.113152 0.44465 -0.173662
0.202078 0.694928 0.071895
0.70127 0.205513 0.045062
0.250914 0.11476 0.400069
0.573172 0.696663 -0.021217
0.199531 0.336882 0.987884
0.119872 0.365419 0.404189
0.702133 0.115858 -0.07634
0.120981 0.590115 0.006743
0.467572 0.186999 0.411136
0.603463 0.482103 0.998546
0.126545 0.599833 0.164611
0.701895 0.587863 -0.011777
0.212775 0.322355 0.996207
0.576557 0.119131 0.403358
0.210219 0.503529 -0.77007
0.693754 0.110806 0.026542
0.698088 0.214597 0.033861
0.114488 0.514308 0.300971
0.50592 0.609621 -0.186774
0.212945 0.526681 0.413085
0.278089 0.699715 0.400015
0.452623 0.115918 0.316786
0.390623 0.70226 -0.173703
0.563047 0.563791 -0.194252
0.57654 0.696232 -0.180558
0.121776 0.11386 0.346406
0.221903 0.114603 0.215069
0.200551 0.60316 0.169195
0.118962 0.22903 0.22663
0.393859 0.698245 -0.181158
0.702956 0.45313 0.324994
0.114781 0.695019 0.32488
0.117389 0.115645 0.363589
0.422437 0.175772 0.409409
0.695681 0.111039 -0.028873
0.699991 0.695756 -0.163609
0.447661 0.69487 0.317567
0.701318 0.498213 0.400514
0.553453 0.114278 0.399318
0.700985 0.483633 0.400804
0.542691 0.244405 0.994623
0.694829 0.580566 -0.007083
0.118345 0.115394 0.155221
0.190515 0.70193 0.125004
0.620137 0.369312 0.993116
0.118452 0.457188 0.314912
0.701626 0.155538 0.39821
0.517422 0.695316 0.404894
0.112687 0.198462 0.12203
0.3227 0.201395 -0.191239
0.412161 0.631636 -0.188437
0.119374 0.335096 -0.1812
0.384195 0.117015 0.401817
0.21676 0.525409 0.417829
0.452431 0.618755 0.994455
0.627798 0.414508 -0.765855
0.701933 0.111629 0.082052
0.273978 0.692757 0.273667
0.420575 0.629205 -0.766471
0.177166 0.440145 -0.185895
0.522238 0.690885 0.285261
0.114473 0.47951 0.314289
0.701587 0.117491 0.316162
0.20425 0.312139 0.410367
0.113214 0.312532 -0.174069
0.113664 0.250484 -0.026374
0.602566 0.284531 -0.189501
0.609182 0.122553 0.085645
0.37111 0.697474 0.40267
0.350586 0.625779 0.415507
0.621341 0.433063 -0.774181
0.619826 0.454063 0.996733
0.569139 0.26701 -0.772388
0.696881 0.514439 -0.068861
0.397352 0.628415 -0.19406
0.700043 0.115649 0.325976
0.449715 0.120042 -0.09203
0.114912 0.471824 0.315175
0.417768 0.634068 0.410311
0.605626 0.126483 0.073778
0.263674 0.572182 0.989152
0.698682 0.698832 0.025271
0.697149 0.525653 0.289476
0.117977 0.115417 0.105665
0.557187 0.250857 0.989484
0.694943 0.237967 -0.012231
0.698768 0.697393 0.035274
0.323972 0.620329 -0.18908
0.633056 0.443096 0.412532
0.696724 0.699621 0.142931
0.702546 0.694563 0.362018
0.539072 0.123441 0.405028
0.702257 0.290481 -0.07069
0.191203 0.350183 0.413066
0.112967 0.315274 0.394852
0.367063 0.629603 0.415119
0.693611 0.474515 0.309324
0.695948 0.700324 0.07092
0.122112 0.113968 0.350282
0.263348 0.235436 0.412293
0.697825 0.335025 -0.086238
0.703641 0.117435 0.019133
0.701358 0.193506 0.120317
0.375276 0.631658 0.413871
0.699126 0.619683 0.106662
0.49814 0.609418 -0.188838
0.111624 0.19917 0.099118
0.587233 0.112912 0.237465
0.703568 0.116697 -0.02226
0.30237 0.605541 0.416846
0.114605 0.39009 -0.178689
0.288924 0.58681 -0.771633
0.568444 0.121471 -0.18264
0.119542 0.2181 0.209692
0.483925 0.693761 0.306815
0.345975 0.695924 -0.181877
0.526122 0.116015 -0.178049
0.115955 0.455704 0.317084
0.702616 0.123143 0.385311
0.691767 0.544452 -0.044057
0.119396 0.407932 0.321367
0.11559 0.320483 -0.086512
0.373839 0.624206 0.993435
0.462096 0.618943 -0.77293
0.613886 0.319414 -0.196097
0.526537 0.234405 -0.774837
0.618133 0.35162 0.99284
0.469387 0.198964 0.992899
0.367488 0.699486 0.400325
0.700535 0.412514 0.400337
0.493923 0.608187 -0.194867
0.218728 0.312348 -0.777094
0.579353 0.113049 0.244557
0.605067 0.300066 0.413079
0.119933 0.433632 0.404298
0.19604 0.423109 0.997412
0.284361 0.699457 0.400424
0.253999 0.260628 -0.774829
0.612584 0.698893 0.401915
0.190181 0.359338 0.415105
0.433852 0.69616 -0.181666
0.531405 0.701213 -0.068438
0.115777 0.118701 -0.169872
0.189567 0.348042 -0.191413
0.118253 0.273086 -0.048794
0.514412 0.113444 0.296175
0.114313 0.288772 0.293957
0.699699 0.572034 0.242496
0.113693 0.360449 -0.175135
0.501142 0.119678 0.297825
0.699979 0.696551 0.173959
0.534735 0.584542 -0.196642
0.118512 0.37868 -0.182287
0.701651 0.19612 0.090283
0.695436 0.600519 0.193803
0.613795 0.698327 0.106981
0.496275 0.698477 -0.083431
0.59268 0.519674 -0.769176
0.268246 0.113387 0.276489
0.51953 0.20952 -0.189794
0.392762 0.118116 0.31862
0.315096 0.693249 -0.075545
0.525281 0.697547 -0.181467
0.691809 0.112008 -0.144989
0.200232 0.700893 0.398495
0.690679 0.20027 0.114439
0.249673 0.263626 -0.774019
0.368214 0.11668 -0.09839
0.245382 0.695183 -0.182103
0.186706 0.458108 0.415212
0.179763 0.445935 0.411085
0.552082 0.115304 -0.177674
0.18474 0.446107 -0.191029
0.416156 0.641 0.407797
0.702637 0.498907 -0.08522
0.199442 0.318309 0.409441
0.140796 0.699546 -0.181169
0.664106 0.697981 -0.179572
0.113122 0.301862 -0.173145
0.577392 0.271283 0.988945
0.700017 0.695541 0.06715
0.118974 0.239881 -0.008455
0.604965 0.493312 0.995297
0.613824 0.307669 0.410708
0.147351 0.114997 0.399229
0.607138 0.519382 -0.193955
0.248474 0.120258 0.248073
0.120452 0.114383 0.086028
0.696661 0.701632 0.374868
0.408154 0.12116 0.405379
0.115832 0.495663 0.401723
0.118694 0.679749 -0.183043
0.562449 0.694556 -0.031685
0.210384 0.113277 0.19511
0.529456 0.231676 -0.772367
0.606526 0.69601 0.161032
0.629326 0.390218 0.418834
0.286883 0.601446 0.411874
0.513465 0.589338 -0.776126
0.339013 0.114178 0.398935
0.119645 0.320116 0.404564
0.447481 0.197465 0.995697
0.120298 0.205761 0.175191
0.528971 0.122012 -0.182466
0.624284 0.617174 0.107304
0.616491 0.703222 0.165324
0.373384 0.633994 0.410844
0.200129 0.340573 -0.773565
0.610687 0.309989 -0.1933
0.494623 0.613338 -0.187848
0.116023 0.166106 -0.17834
0.611479 0.700817 0.060647
0.698853 0.565786 0.401719
0.700714 0.695142 0.227128
0.601132 0.7022 0.013051
0.114324 0.287262 0.39768
0.697426 0.214244 0.191503
0.609356 0.69775 0.054117
0.115685 0.697352 0.263474
0.69939 0.697265 0.013756
0.593795 0.121068 0.404273
0.257732 0.26395 0.999841
0.113177 0.264831 -0.17396
0.157925 0.701274 0.398757
0.696281 0.553931 -0.037206
0.257726 0.69337 0.405052
0.228632 0.585068 0.221591
0.263223 0.249721 0.998195
0.246092 0.550266 0.995526
0.693621 0.701479 0.000856
0.609197 0.115144 -0.177783
0.699213 0.697099 0.282348
0.61658 0.620671 0.087763
0.702282 0.119951 0.320691
0.117687 0.251881 0.402272
0.693607 0.701275 0.091535
0.114592 0.513139 -0.072943
0.606974 0.600626 0.185512
0.40809 0.631511 -0.189177
0.215159 0.591579 0.202139
0.698088 0.112812 -0.091363
0.5342 0.696222 -0.181663
0.282458 0.119452 0.404674
0.190309 0.439925 0.987045
0.609006 0.301948 0.411455
0.120232 0.603322 0.043618
0.119843 0.701203 0.121408
0.612704 0.699038 0.077141
0.325882 0.693349 -0.080849
0.621256 0.372601 0.993001
0.278289 0.700247 0.285161
0.439855 0.618142 -0.776459
0.175441 0.124178 0.406004
0.238948 0.120643 0.23473
0.591129 0.114798 0.019447
0.304132 0.200623 0.409805
0.695308 0.699928 0.26451
0.630594 0.433926 0.416081
0.115759 0.301025 0.401098
0.698195 0.338094 -0.179831
0.697051 0.209762 0.046287
0.624125 0.48426 0.411608
0.118115 0.516682 -0.06818
0.229939 0.536174 -0.771028
0.582487 0.260146 -0.191462
0.174981 0.436249 -0.185564
0.47238 0.626854 -0.185937
0.265687 0.700636 -0.050427
0.693949 0.254047 0.255823
0.611456 0.699415 0.135539
0.696028 0.284191 0.284144
0.438973 0.614165 0.998536
0.11959 0.414514 -0.183113
0.155707 0.699729 0.401179
0.182297 0.406782 -0.190713
0.258552 0.114078 -0.04783
0.62185 0.439894 -0.771903
0.120291 0.404395 0.321226
0.123525 0.702006 0.154481
0.388567 0.61923 -0.775557
0.333816 0.607598 0.998217
0.113769 0.530548 -0.067484
0.530077 0.115164 0.284884
0.451597 0.638021 0.407723
0.116623 0.203122 0.172569
0.118137 0.115589 0.385243
0.468763 0.612177 -0.775972
0.70359 0.114297 0.135506
0.70208 0.597275 -0.173958
0.697729 0.574369 0.237185
0.559964 0.562115 -0.769227
0.282782 0.22106 -0.190242
0.112776 0.230096 0.011718
0.70154 0.344649 0.316555
0.703102 0.117756 -0.079999
0.613297 0.480593 0.991573
0.343342 0.189145 0.41394
0.621986 0.439874 0.996081
0.696508 0.698851 -0.052674
0.387596 0.626697 0.989598
0.534204 0.699639 0.282584
0.316494 0.117307 0.301145
0.440733 0.194035 0.995087
0.703031 0.392176 0.326563
0.701462 0.11216 -0.03838
0.694759 0.227108 0.216409
0.178407 0.446428 -0.186849
0.17998 0.422345 -0.186811
0.111703 0.459529 0.322024
0.606443 0.699268 0.039921
0.199231 0.314923 0.409266
0.122473 0.702393 0.367347
0.329564 0.694666 0.308315
0.439241 0.180516 0.410973
0.181331 0.389945 -0.187645
0.702959 0.118158 -0.088913
0.197966 0.329212 -0.192731
0.287726 0.210576 0.409239
0.696192 0.617581 0.113333
0.70145 0.552811 -0.174619
0.547902 0.590711 0.4094
0.619564 0.500329 -0.193263
0.474837 0.198125 0.988536
0.626152 0.47413 0.412034
0.69943 0.577226 -0.016926
0.231959 0.286022 -0.775451
0.350804 0.112398 0.321636
0.282618 0.695472 -0.057193
0.111988 0.234427 -0.007862
0.502254 0.198448 -0.187765
0.506392 0.120587 -0.182227
0.362963 0.692716 0.317659
0.204035 0.325221 -0.773043
0.114174 0.695989 0.023522
0.580586 0.698246 0.401577
0.475098 0.202637 0.994656
0.439796 0.197419 0.996903
0.506022 0.201332 0.415925
0.69857 0.61169 0.166851
0.703005 0.116823 0.226721
0.632122 0.3822 -0.189257
0.31649 0.700699 -0.084069
0.700625 0.659629 -0.177162
0.578396 0.55681 -0.188478
0.548541 0.693187 -0.045549
0.113993 0.557691 -0.043916
0.700565 0.11117 0.0019
0.701457 0.61934 0.059166
0.119357 0.114123 0.224995
0.480258 0.187884 -0.185922
0.691172 0.701896 0.222964
0.115837 0.124126 0.399801
0.238394 0.262194 0.415779
0.408078 0.194215 -0.772311
0.283884 0.117416 0.283096
0.11802 0.700048 0.099178
0.116296 0.450165 0.402593
0.306727 0.617975 -0.187698
0.612855 0.303874 -0.188631
0.281099 0.226258 -0.195303
0.699456 0.464504 0.401908
0.598794 0.531673 -0.19305
0.696495 0.699731 0.226262
0.70169 0.196826 0.086545
0.119289 0.618107 -0.182148
0.121097 0.11411 0.042218
0.235846 0.540989 0.99332
0.584814 0.117514 0.228766
0.588087 0.699687 0.398953
0.57109 0.547565 -0.770348
0.444486 0.624149 -0.192406
0.402389 0.189485 0.991659
0.233445 0.270193 -0.194818
0.325672 0.201671 -0.19505
0.239407 0.255928 -0.188849
0.253523 0.24661 0.414842
0.268111 0.117165 0.270559
0.699714 0.147868 -0.17653
0.495288 0.695043 0.405332
0.700373 0.666631 -0.177739
0.301943 0.608952 0.41297
0.698036 0.698121 0.303589
0.33662 0.614493 0.991127
0.700753 0.246066 -0.030467
0.689661 0.702486 0.388628
0.702855 0.302452 -0.080581
0.277764 0.694603 -0.182592
0.402222 0.700397 0.400247
0.691185 0.692965 -0.181452
0.115835 0.117879 0.006161
0.246872 0.114248 0.256422
0.114994 0.379623 0.324341
0.633799 0.436374 0.41259
0.197881 0.698652 0.097991
0.115065 0.117728 0.392125
0.188274 0.484829 0.409893
0.250561 0.247592 0.412936
0.117312 0.231978 0.232154
0.273626 0.225043 -0.188293
0.55846 0.583066 0.409752
0.693843 0.701361 0.081106
0.69533 0.356222 0.313101
0.166231 0.119675 0.403696
0.113648 0.459878 -0.174975
0.115018 0.696185 0.274376
0.699596 0.696688 -0.098661
0.121129 0.605374 0.139165
0.586296 0.266715 0.411738
0.701485 0.116751 0.291132
0.119242 0.210931 0.060921
0.127503 0.700684 -0.177259
0.695458 0.111103 0.128453
0.698262 0.697868 -0.122138
0.52351 0.114835 0.398082
0.401225 0.699683 -0.180048
0.113295 0.362399 0.325584
0.477143 0.196705 -0.195432
0.510859 0.218569 -0.772144
0.701995 0.546094 -0.171832
0.329135 0.212842 0.998086
0.634046 0.35639 0.409166
0.201947 0.119415 0.149336
0.695262 0.679029 -0.181665
0.121671 0.530603 -0.057771
0.582033 0.277229 0.988995
0.499695 0.604154 -0.770172
0.207798 0.304948 0.410997
0.197957 0.459776 -0.772114
0.120434 0.331489 -0.181883
0.697491 0.471594 0.403936
0.695007 0.60982 0.166393
0.223693 0.539411 0.415929
0.243312 0.116718 0.24432
0.635083 0.440159 0.41141
0.562231 0.246063 0.420874
0.601977 0.697897 0.028274
0.615169 0.460141 0.998253
0.701359 0.560423 -0.039545
0.445358 0.19261 -0.769784
0.581111 0.11579 0.002032
0.121438 0.701654 0.015793
0.544269 0.121175 -0.182399
0.369875 0.693971 0.31943
0.595854 0.298455 -0.768847
0.334312 0.62166 0.412777
0.401933 0.626815 -0.773374
0.698307 0.593365 0.007129
0.283338 0.224024 -0.193864
0.242466 0.540291 0.997311
0.418858 0.122879 0.317872
0.630345 0.118113 0.402511
0.196794 0.489399 0.412896
0.701333 0.694404 -0.077708
0.326807 0.700369 0.399595
0.395151 0.698196 0.402245
0.119462 0.60843 0.075547
0.118021 0.555364 0.269051
0.113901 0.160344 -0.174239
0.120898 0.11477 0.255283
0.361011 0.113214 0.31936
0.114041 0.695338 -0.055134
0.161686 0.696888 0.403325
0.7031 0.111731 0.02195
0.371282 0.115607 0.317039
0.116174 0.153505 -0.178912
0.379148 0.119905 0.403747
0.116627 0.433958 0.40233
0.112916 0.216806 0.040214
0.512526 0.606124 0.414809
0.196465 0.329168 0.408689
0.199943 0.470262 0.993309
0.122215 0.316704 0.404945
0.381683 0.700587 0.326862
0.495701 0.612084 0.417357
0.335307 0.187017 0.410006
0.262294 0.235559 -0.190899
0.114441 0.338372 0.316145
0.69433 0.49091 0.304598
0.69788 0.301072 -0.071013
0.240092 0.549081 0.990849
0.287381 0.21573 -0.188632
0.567919 0.117087 0.402753
0.114283 0.239609 -0.17508
0.607549 0.483082 0.996517
0.118261 0.533924 -0.057122
0.113454 0.595796 -0.173687
0.299004 0.212513 0.415574
0.11289 0.390747 -0.174473
0.607886 0.703108 0.020109
0.388211 0.183459 -0.19337
0.212972 0.311061 0.99483
0.394128 0.700927 -0.177632
0.583734 0.53217 -0.770818
0.112911 0.340813 0.396309
0.119562 0.35279 0.314674
0.178169 0.419395 -0.186319
0.700085 0.20932 0.039382
0.698319 0.606769 0.401259
0.696059 0.199733 0.096034
0.486015 0.620622 0.411179
0.121266 0.243528 0.244559
0.308373 0.113977 -0.081972
0.701296 0.695026 -0.153066
0.467832 0.70068 0.398361
0.584291 0.118947 -0.181282
0.117212 0.20059 0.130298
0.136026 0.701502 -0.177458
0.579079 0.25842 -0.192737
0.60755 0.699638 0.164048
0.417058 0.699684 -0.179781
0.560032 0.559067 -0.771857
0.223469 0.529391 -0.765339
0.306745 0.597765 0.996007
0.414143 0.112672 0.39522
0.116269 0.390073 -0.104046
0.297917 0.219777 -0.77041
0.115679 0.34745 0.318123
0.407555 0.622155 0.99583
0.693996 0.700799 -0.00732
0.698702 0.111178 0.126737
0.120477 0.143174 0.40428
0.700031 0.299906 0.401084
0.592587 0.270168 -0.189864
0.115356 0.137324 0.399221
0.259256 0.251758 -0.772487
0.68979 0.121696 0.403365
0.69639 0.678466 0.405204
0.698349 0.363614 0.315676
0.611518 0.692079 0.126878
0.478338 0.118298 0.307094
0.185798 0.37425 -0.191819
0.112806 0.668611 -0.175825
0.698017 0.500649 -0.076812
0.56946 0.113181 -0.02162
0.122055 0.113974 0.309754
0.357634 0.697814 0.401263
0.113498 0.692942 -0.059097
0.701391 0.440738 -0.172773
0.697968 0.697951 0.046162
0.2667 0.234802 0.414413
0.692817 0.128484 0.404567
0.505179 0.694569 -0.18258
0.699017 0.54527 -0.178184
0.701362 0.272118 0.397605
0.702118 0.515728 -0.173087
0.702058 0.218526 0.21611
0.341194 0.199271 -0.766722
0.594481 0.519475 0.992222
0.693764 0.111079 0.107354
0.11415 0.681817 -0.177703
0.32027 0.694365 0.303708
0.221644 0.596767 0.202078
0.703195 0.118073 0.248129
0.69858 0.69918 0.340987
0.702587 0.113783 0.151887
0.477339 0.114993 0.309748
0.702642 0.193338 0.153124
0.699205 0.19308 0.400523
0.22732 0.533352 -0.770126
0.126372 0.603894 0.141066
0.611176 0.206299 0.042127
0.250866 0.120291 0.404947
0.399849 0.638897 0.408352
0.540822 0.119914 0.272635
0.326929 0.194603 -0.188666
0.536543 0.591427 -0.1879
0.324982 0.116821 0.402396
0.620689 0.703218 0.113619
0.118881 0.115027 0.070291
0.588431 0.51665 -0.773983
0.634604 0.41489 0.412795
0.296232 0.693381 -0.183395
0.276497 0.232895 0.990699
0.355088 0.112384 0.321428
0.693624 0.701277 0.016757
0.208915 0.497488 0.990312
0.578208 0.565007 -0.186703
0.6992 0.115463 -0.136562
0.176652 0.4073 -0.186407
0.697282 0.112811 -0.09633
0.700461 0.245348 0.398727
0.118386 0.115464 0.147595
0.220069 0.294326 -0.770812
0.69792 0.120029 -0.175044
0.694319 0.286318 0.40467
0.426911 0.119539 0.404793
0.350851 0.693855 -0.182684
0.322407 0.623268 -0.187211
0.594293 0.285208 0.41505
0.11856 0.116302 0.258845
0.25273 0.701172 0.262231
0.697284 0.698645 0.205962
0.220733 0.114361 0.399551
0.590767 0.119162 0.403065
0.377225 0.692958 -0.097773
0.520093 0.120962 -0.181148
0.401486 0.119018 0.403628
0.375187 0.625625 -0.768712
0.218359 0.697442 0.402741
0.701397 0.11484 -0.090412
0.603017 0.116417 0.399992
0.607418 0.494324 0.991937
0.698566 0.5637 0.251346
0.116328 0.116803 -0.022991
0.702724 0.113343 0.164318
0.114083 0.205412 0.191884
0.220352 0.53238 0.418037
0.329562 0.608641 0.997147
0.178653 0.386126 -0.186173
0.504597 0.198492 0.41408
0.326397 0.193569 0.411688
0.117644 0.579181 0.237776
0.114092 0.562552 0.39823
0.119468 0.288403 -0.181632
0.691601 0.612894 0.143755
0.627342 0.390107 -0.766973
0.393341 0.632607 0.414179
0.237245 0.27842 0.99895
0.221781 0.284763 -0.192856
0.200792 0.696041 0.139591
0.115289 0.425573 0.400329
0.113491 0.564243 -0.040988
0.198036 0.599426 0.171922
0.50256 0.604044 -0.192673
0.20356 0.699541 -0.177589
0.115157 0.428397 -0.103282
0.11405 0.179535 -0.174693
0.120953 0.701556 0.124844
0.454234 0.701566 0.324924
0.546024 0.690968 -0.184021
0.614021 0.340824 0.992613
0.695567 0.399282 -0.097659
0.11743 0.118985 -0.173393
0.121903 0.506622 -0.071594
0.623432 0.617294 0.102606
0.115633 0.527758 -0.066311
0.113148 0.609561 -0.174241
0.619573 0.350836 0.988327
0.195887 0.699236 0.092476
0.462242 0.609416 -0.776854
0.617009 0.472584 0.989772
0.121748 0.701212 -0.120735
0.593713 0.545991 0.409011
0.118099 0.400718 0.322762
0.117593 0.225624 0.223648
0.485654 0.19306 -0.18708
0.702992 0.627531 0.118138
0.364424 0.701289 0.32678
0.699849 0.115178 0.330527
0.701892 0.113973 0.250474
0.703641 0.116483 0.022556
0.591376 0.114391 0.226437
0.121927 0.701289 0.056607
0.618401 0.355632 0.993348
0.237835 0.118318 -0.017133
0.189202 0.359022 -0.1956
0.695145 0.363912 0.314075
0.215365 0.699694 -0.177962
0.452821 0.631274 0.40963
0.6939 0.700886 0.32329
0.571072 0.565451 -0.187949
0.184328 0.400723 -0.195572
0.250805 0.258402 0.995713
0.40597 0.199885 -0.775393
0.446146 0.180722 0.410224
0.582492 0.698674 0.232649
0.415433 0.702716 -0.171949
0.250171 0.56698 -0.195852
0.493078 0.693384 0.302414
0.486995 0.198266 -0.192037
0.543565 0.694258 -0.050039
0.703641 0.116027 0.06084
0.693991 0.46798 -0.087266
0.425663 0.115881 0.321208
0.696027 0.296658 -0.067343
0.247335 0.117895 -0.030916
0.120009 0.21418 0.046614
0.629504 0.361714 -0.190823
0.401784 0.618935 -0.776506
0.544801 0.58552 -0.189345
0.381146 0.635104 0.410469
0.557559 0.255215 -0.771182
0.508303 0.198845 0.412876
0.437602 0.701043 0.325218
0.563253 0.699009 0.261446
0.112659 0.295547 -0.077025
0.695734 0.275182 0.278022
0.117708 0.699374 0.26547
0.114531 0.248343 0.259625
0.117754 0.463214 -0.180223
0.400233 0.195087 -0.772642
0.195871 0.359243 -0.772046
0.120689 0.377166 0.319597
0.701295 0.321803 0.308399
0.115605 0.135052 -0.176053
0.467016 0.615306 -0.775223
0.113778 0.602036 0.030237
0.702442 0.117846 -0.096386
0.114082 0.38562 0.399358
0.117636 0.242668 -0.011829
0.131286 0.701094 -0.178268
0.27677 0.238369 -0.774526
0.119967 0.610709 0.402457
0.703646 0.117126 0.100986
0.623046 0.435769 -0.772182
0.190299 0.408358 0.992932
0.337461 0.200557 -0.767391
0.281883 0.577157 0.997559
0.702029 0.120291 -0.138164
0.116158 0.696766 -0.073895
0.205592 0.315818 -0.196759
0.114454 0.41289 -0.178955
0.120564 0.1135 -0.033167
0.457269 0.611722 -0.776848
0.537215 0.696231 0.403727
0.690904 0.111581 0.28804
0.693606 0.702422 0.372913
0.629847 0.380566 -0.191955
0.692956 0.701942 0.338988
0.244887 0.540779 -0.776813
0.699779 0.544312 0.275424
0.504421 0.119278 0.296133
0.395919 0.693448 -0.183341
0.328994 0.186203 0.409062
0.473597 0.199545 -0.770068
0.698239 0.564327 -0.029033
0.179739 0.114644 0.399201
0.173968 0.117595 0.402811
0.693056 0.588534 0.213646
0.455493 0.621535 -0.192211
0.41885 0.624797 -0.775178
0.432028 0.694819 0.320593
0.290184 0.605384 0.410157
0.700715 0.404986 0.322529
0.563071 0.698187 0.40124
0.699382 0.358329 0.400436
0.116726 0.360369 -0.180336
0.117818 0.608015 0.132916
0.695326 0.702163 0.368501
0.570684 0.692399 -0.02162
0.122671 0.607456 0.067039
0.440524 0.115608 -0.178066
0.115357 0.696773 0.154139
0.500504 0.114222 0.303443
0.115509 0.696261 -0.066059
0.114264 0.532853 -0.064764
0.596375 0.122688 0.041601
0.281032 0.582715 0.994645
0.116026 0.426206 0.320872
0.114296 0.333029 0.314754
0.275506 0.244984 -0.776201
0.697479 0.202589 0.157187
0.449017 0.700874 -0.177418
0.113377 0.605844 0.393404
0.363187 0.186951 -0.191815
0.449448 0.182009 -0.186295
0.611801 0.120203 0.103693
0.623683 0.418026 -0.77403
0.119526 0.421814 0.404164
0.635572 0.69573 0.405109
0.697332 0.69876 -0.017954
0.440628 0.193035 -0.771075
0.404119 0.690775 -0.098979
0.617223 0.702198 0.111777
0.442579 0.691253 -0.184059
0.614641 0.701333 0.084105
0.522761 0.700748 0.400336
0.505889 0.698145 -0.18017
0.18921 0.403417 0.991092
0.11208 0.242185 -0.02423
0.114151 0.615038 0.079719
0.120902 0.113974 -0.100913
0.609623 0.122146 0.112976
0.701031 0.577094 -0.021448
0.625189 0.701189 0.398651
0.194536 0.403096 0.996857
0.203893 0.323675 -0.770296
0.6126 0.700358 0.130542
0.361308 0.695361 0.403305
0.206191 0.494016 -0.771211
0.371989 0.115811 0.400749
0.57594 0.114559 0.243657
0.586243 0.11411 -0.17523
0.117672 0.602081 0.177032
0.116005 0.665778 -0.181906
0.118882 0.576078 0.240229
0.698794 0.517952 0.296083
0.60854 0.604897 0.040346
0.28145 0.694608 -0.182132
0.50681 0.20627 -0.195512
0.421314 0.176176 -0.186752
0.390153 0.173853 -0.186773
0.414784 0.632764 0.412877
0.639389 0.694336 0.405662
0.611214 0.702257 0.17033
0.222797 0.286418 0.417357
0.697735 0.222933 0.401768
0.356169 0.630461 0.412571
0.607133 0.519132 0.412669
0.264272 0.237931 0.417472
0.114938 0.176342 0.397566
0.574256 0.113654 0.249851
0.700831 0.20361 0.178618
0.700875 0.213716 0.201191
0.636596 0.365384 -0.186727
0.697456 0.699457 0.097533
0.115533 0.31335 0.304764
0.469154 0.193233 -0.190753
0.569521 0.121255 0.244419
0.283064 0.233681 -0.774766
0.30578 0.615016 0.410085
0.697292 0.113712 0.327944
0.423333 0.627321 -0.195586
0.113558 0.491896 -0.086579
0.204896 0.332191 -0.776289
0.116088 0.117237 0.111808
0.604469 0.294067 -0.191861
0.69827 0.551315 0.403363
0.116386 0.609836 0.398537
0.681538 0.118286 0.40252
0.122521 0.701426 -0.029362
0.212982 0.699489 0.012412
0.696923 0.201224 0.147134
0.699824 0.696229 -0.159765
0.424726 0.115035 -0.17697
0.599349 0.499761 -0.773562
0.59861 0.696946 -0.1797
0.12164 0.701421 0.200926
0.64778 0.701274 0.39803
0.693084 0.112142 0.294882
0.692978 0.552676 0.26004
0.698443 0.618025 -0.179779
0.516802 0.115571 0.400946
0.593406 0.547203 -0.187248
0.70106 0.589823 -0.006126
0.308371 0.121647 0.295832
0.425801 0.698068 0.323914
0.117079 0.582185 0.234635
0.114809 0.44124 -0.102117
0.300239 0.205384 0.410773
0.641334 0.701376 0.39793
0.435465 0.113064 0.32428
0.385188 0.696487 0.402931
0.398555 0.120497 0.31848
0.506909 0.605812 -0.187898
0.551088 0.584351 0.411423
0.53978 0.113529 -0.051523
0.618295 0.619915 0.103956
0.120242 0.54837 0.272147
0.637875 0.398595 -0.187492
0.617144 0.452908 -0.773338
0.693549 0.701182 0.326911
0.116419 0.285744 -0.05993
0.184983 0.343774 -0.187396
0.200043 0.694521 0.102216
0.11291 0.692866 0.070788
0.344716 0.614918 -0.772681
0.112824 0.692803 0.082343
0.115702 0.477218 -0.089724
0.468415 0.697295 -0.093133
0.640106 0.433738 -0.18672
0.329849 0.616563 0.419217
0.119726 0.203272 0.102942
0.701738 0.567073 0.396706
0.233296 0.29272 0.999722
0.261487 0.232077 0.409751
0.415883 0.628809 -0.767991
0.331451 0.116953 -0.17906
0.396831 0.636952 0.409101
0.273867 0.699993 0.279594
0.120524 0.476794 0.404382
0.285952 0.693011 0.283656
0.699877 0.304824 0.299728
0.545134 0.121944 0.404944
0.18899 0.345342 0.409428
0.602582 0.504499 0.992214
0.24067 0.55912 0.417424
0.625691 0.341156 0.41039
0.698664 0.111221 0.138347
0.701259 0.251237 -0.039923
0.121703 0.597042 0.022815
0.606461 0.125639 0.077701
0.117645 0.69873 -0.038254
0.246418 0.117062 0.247715
0.112816 0.497165 -0.174809
0.702161 0.120304 -0.141863
0.6996 0.282655 -0.062123
0.190294 0.400085 0.992567
0.451534 0.6944 0.316896
0.474705 0.122941 -0.183445
0.698096 0.321187 -0.178456
0.118062 0.348736 -0.180785
0.690515 0.55404 -0.03506
0.430243 0.195818 -0.774624
0.121692 0.113444 0.11992
0.615221 0.510562 -0.192605
0.339046 0.190164 -0.188964
0.183249 0.69346 -0.183321
0.701318 0.199326 0.078895
0.208696 0.122192 0.170174
0.193395 0.407301 0.995962
0.551169 0.699247 -0.179397
0.11477 0.697037 -0.155814
0.611486 0.209598 0.037568
0.20339 0.481056 -0.772528
0.702021 0.621545 0.135027
0.598755 0.282447 0.410393
0.295525 0.606956 0.411103
0.693409 0.701017 0.039186
0.203908 0.463109 -0.775875
0.260104 0.1226 -0.182624
0.375781 0.112188 0.322501
0.116234 0.5794 -0.177925
0.114962 0.483095 -0.177703
0.346234 0.619421 -0.766947
0.54406 0.695473 0.272882
0.265393 0.116865 -0.178842
0.243109 0.569922 0.411356
0.514871 0.694477 -0.182957
0.267319 0.119542 0.267965
0.400364 0.177322 -0.189019
0.278695 0.698976 -0.057252
0.463996 0.186476 0.411704
0.610197 0.340268 -0.773759
0.117621 0.116761 0.0489
0.693454 0.247984 -0.023764
0.701233 0.116923 0.319301
0.328122 0.618984 0.413503
0.235826 0.697533 0.236064
0.11278 0.449636 0.321051
0.246368 0.567744 0.414137
0.19039 0.392739 0.99066
0.114955 0.607138 0.052322
0.305071 0.114171 -0.080005
0.39713 0.6237 0.995093
0.599537 0.530746 0.411945
0.696624 0.699618 0.202608
0.118277 0.501049 0.303096
0.112108 0.209286 0.047695
0.390404 0.119895 0.404037
0.701304 0.313631 0.304713
0.539201 0.582216 -0.196368
0.520348 0.111405 -0.069617
0.553469 0.692095 -0.183534
0.114689 0.484488 -0.088151
0.122417 0.113227 0.169044
0.417931 0.623366 0.995306
0.53603 0.235784 0.992648
0.114696 0.210731 0.204954
0.519056 0.220091 0.988677
0.483183 0.19295 0.414895
0.119452 0.20786 -0.181062
0.114808 0.223003 0.028213
0.221772 0.697494 0.213023
0.700408 0.432505 0.400971
0.619546 0.700638 0.39954
0.601988 0.21438 0.02327
0.370381 0.121465 0.405072
0.579222 0.258649 0.411592
0.381079 0.121036 -0.097607
0.657778 0.114485 -0.176708
0.344706 0.19677 0.989736
0.116278 0.116878 0.380326
0.57307 0.544385 0.993277
0.354723 0.115565 0.315236
0.57858 0.694894 -0.013606
0.703307 0.388903 -0.108308
0.695535 0.266376 -0.046088
0.115167 0.227733 0.399521
0.38972 0.625896 -0.772675
0.119927 0.314472 0.403593
0.115809 0.118123 0.076259
0.473563 0.616654 -0.768178
0.703433 0.112025 0.111093
0.698128 0.115377 -0.127297
0.277565 0.239429 0.99732
0.213108 0.503282 -0.774085
0.490779 0.119228 -0.07852
0.623949 0.337439 0.410492
0.488089 0.610563 -0.196311
0.121667 0.624407 -0.183214
0.113886 0.694396 0.289869
0.694433 0.64484 0.404919
0.401432 0.631585 -0.188779
0.346193 0.114616 0.398817
0.548455 0.693359 0.268622
0.4138 0.113016 0.325026
0.535795 0.117592 0.277867
0.119109 0.583526 -0.006885
0.700167 0.472893 -0.175457
0.611121 0.527327 -0.18749
0.295591 0.702176 -0.173428
0.420556 0.697966 -0.180885
0.694583 0.11192 0.286307
0.117149 0.117749 0.280282
0.111259 0.198088 0.088973
0.220355 0.272894 0.409225
0.207596 0.119349 -0.18114
0.661538 0.114185 -0.17629
0.121274 0.113919 0.237195
0.620042 0.477246 0.419112
0.513335 0.694123 -0.07137
0.196976 0.699431 0.081037
0.495678 0.700562 0.308248
0.113856 0.696369 0.077648
0.234206 0.556593 0.413954
0.694589 0.533671 0.280776
0.272962 0.698723 -0.052631
0.116105 0.444978 -0.098371
0.491006 0.610046 -0.193623
0.449553 0.621044 0.992396
0.624449 0.422025 0.993436
0.197585 0.117302 0.139728
0.629147 0.460776 0.412645
0.43069 0.628124 -0.768509
0.115798 0.612765 0.098521
0.114345 0.310827 0.396943
0.240938 0.118306 0.239304
0.496326 0.207777 0.989485
0.379301 0.633063 0.412814
0.213502 0.697016 0.192573
0.137198 0.117852 0.40232
0.116542 0.11656 0.213483
0.118613 0.69998 0.193247
0.547968 0.583048 0.413998
0.69547 0.634116 0.403971
0.409739 0.698735 0.401997
0.210142 0.484097 -0.775855
0.430114 0.699279 0.324427
0.180567 0.353703 -0.186829
0.611152 0.332759 0.993864
0.20579 0.520164 0.410425
0.448889 0.695606 -0.095563
0.616642 0.445176 0.99888
0.579459 0.700985 -0.021172
0.113205 0.496741 0.397661
0.599187 0.605042 0.18759
0.602866 0.114885 0.037717
0.703592 0.116693 0.008346
0.197407 0.488222 -0.194187
0.239746 0.702174 0.252748
0.285405 0.693742 -0.182516
0.482811 0.698572 0.310173
0.623086 0.396532 -0.775503
0.307545 0.600439 -0.768633
0.623242 0.617156 0.096696
0.349487 0.122416 -0.182855
0.261391 0.564386 0.99464
0.696308 0.544183 -0.180356
0.118478 0.63844 -0.18195
0.698025 0.111968 0.257293
0.219199 0.589791 0.207959
0.703571 0.122375 0.221542
0.700441 0.620857 0.398463
0.189433 0.124489 -0.182949
0.63231 0.418492 -0.192569
0.205435 0.115483 0.033486
0.21224 0.493215 0.996239
0.55149 0.563177 -0.774134
0.494584 0.110943 -0.090284
0.4385 0.112074 -0.102757
0.36324 0.618826 -0.774683
0.703181 0.111947 0.103241
0.459926 0.693498 0.315695
0.182563 0.398266 0.414705
0.113148 0.584919 -0.171894
0.499615 0.693744 0.405694
0.117941 0.701157 -0.149113
0.699212 0.49043 0.3085
0.43536 0.620875 0.996069
0.700219 0.114456 -0.098063
0.693419 0.498416 -0.075319
0.700666 0.620813 0.126417
0.195958 0.383845 0.997273
0.597776 0.221947 0.013083
0.618685 0.320995 -0.190229
0.697796 0.479421 0.404032
0.531118 0.695882 0.281016
0.405823 0.632677 0.414913
0.115142 0.69866 -0.148312
0.694821 0.700655 -0.023917
0.117836 0.115194 -0.030211
0.321204 0.122003 0.30214
0.201948 0.497903 -0.196198
0.579907 0.698322 0.236235
0.698541 0.223588 -0.177766
0.36554 0.194405 0.992959
0.566032 0.113685 0.258583
0.500333 0.195039 -0.186572
0.606293 0.118482 0.174948
0.601789 0.299655 0.417152
0.461336 0.117225 0.31305
0.603581 0.692548 0.405259
0.340408 0.693595 -0.087824
0.701861 0.691986 0.198863
0.185078 0.120379 -0.181373
0.119991 0.456009 -0.09235
0.120717 0.701227 0.004812
0.701742 0.478287 -0.092125
0.266805 0.251666 0.999107
0.699172 0.69622 -0.014058
0.206501 0.697034 0.171821
0.192543 0.114463 0.134937
0.112379 0.239847 -0.016587
0.288964 0.224933 -0.769871
0.694525 0.613993 -0.182193
0.479895 0.184268 0.408947
0.699311 0.698453 0.191037
0.12119 0.30613 0.404172
0.695741 0.699241 -0.038921
0.254924 0.236286 -0.187603
0.120212 0.700366 -0.117705
0.217739 0.114448 -0.174902
0.120136 0.700762 -0.053614
0.69416 0.698981 -0.173652
0.699435 0.370626 -0.176477
0.700613 0.407478 -0.174738
0.70158 0.293748 0.296995
0.11215 0.218377 0.032215
0.624065 0.348969 -0.192652
0.699908 0.344354 0.313085
0.62775 0.351722 0.4117
0.596799 0.122466 0.404756
0.116766 0.115869 0.223778
0.119369 0.114935 0.378815
0.113293 0.299449 0.395782
0.693566 0.111155 0.212429
0.305449 0.112954 0.397107
0.578025 0.537316 0.994871
0.250744 0.271646 0.99975
0.258484 0.582551 -0.19018
0.697677 0.113169 0.362035
0.693954 0.227284 0.009295
0.39425 0.634519 0.41087
0.117584 0.59102 0.00834
0.116225 0.457682 0.40273
0.622319 0.383678 0.99366
0.120615 0.607766 0.071538
0.325036 0.206867 -0.770686
0.4371 0.191488 0.993252
0.513471 0.112364 -0.070952
0.695264 0.233505 -0.18063
0.115234 0.696045 0.317174
0.669675 0.118542 -0.181274
0.111921 0.228968 0.003201
0.233504 0.699684 0.400939
0.120023 0.114545 0.328696
0.230628 0.701781 0.239002
0.111615 0.20037 0.094949
0.118041 0.692041 0.398456
0.69795 0.235466 -0.010926
0.23457 0.117157 -0.014933
0.119247 0.582698 0.231119
0.116007 0.51844 0.399441
0.114318 0.454898 0.400121
0.610776 0.699846 0.142913
0.693392 0.600773 0.189663
0.117074 0.323468 0.306812
0.319812 0.210507 0.995548
0.581701 0.117934 0.00648
0.700685 0.695211 -0.108212
0.11473 0.332996 -0.176573
0.692554 0.510282 -0.068901
0.116678 0.421101 -0.181265
0.498378 0.612144 0.414598
0.697649 0.616202 0.072419
0.639557 0.697726 -0.178963
0.69651 0.650313 0.404173
0.12286 0.598267 0.025625
0.192028 0.11533 0.127568
0.703035 0.118918 -0.059748
0.522719 0.69432 -0.065157
0.117188 0.666772 0.402721
0.701587 0.621055 -0.174803
0.697585 0.572689 0.402597
0.253118 0.7 -0.041136
0.58842 0.695008 -0.181066
0.319662 0.695956 -0.079593
0.6184 0.457637 -0.772002
0.24543 0.549581 -0.773421
0.408475 0.17833 -0.18856
0.12233 0.113145 0.020269
0.499553 0.59851 0.998368
0.341921 0.621661 -0.193562
0.176111 0.691698 -0.183966
0.404995 0.692292 -0.1836
0.23425 0.695341 -0.014875
0.25142 0.252784 -0.76566
0.459289 0.701067 -0.176565
0.584865 0.698346 -0.008477
0.292949 0.216989 0.41605
0.423557 0.700274 0.399553
0.140092 0.120046 0.40386
0.496047 0.616502 0.410822
0.597751 0.513107 0.993604
0.527375 0.1133 0.290252
0.270764 0.242966 -0.774133
0.700151 0.331681 -0.175847
0.563882 0.112544 -0.030666
0.115618 0.610636 0.139459
0.654897 0.701343 0.400028
0.214499 0.522882 0.41656
0.289173 0.692837 -0.060503
0.617049 0.324448 -0.19304
0.698858 0.615041 0.060022
0.701757 0.487879 -0.086401
0.632131 0.42239 -0.192736
0.1179 0.574439 0.244063
0.119998 0.301292 0.403878
0.240814 0.557028 -0.194756
0.115488 0.385036 -0.103951
0.511883 0.59166 0.998213
0.15918 0.701766 -0.17747
0.3618 0.637523 0.408615
0.420335 0.638896 -0.185547
0.628139 0.360543 0.412731
0.678991 0.69942 -0.177368
0.701263 0.575872 0.243663
0.349656 0.189755 -0.1917
0.114552 0.366201 0.399383
0.699029 0.697791 0.166245
0.123756 0.114273 0.394261
0.614475 0.325791 0.41616
0.283852 0.698366 -0.179906
0.117009 0.30205 0.295946
0.699552 0.189692 0.400565
0.191627 0.380302 0.989826
0.194479 0.395777 -0.773602
0.545686 0.116883 0.271048
0.364886 0.636999 -0.185503
0.62153 0.456118 0.992027
0.226108 0.533009 -0.765742
0.113641 0.587702 0.396417
0.334784 0.121145 0.307959
0.114668 0.497107 0.30827
0.486316 0.617339 -0.18746
0.6299 0.414752 0.420386
0.579289 0.552766 -0.190257
0.117131 0.3409 -0.092966
0.615621 0.117305 0.129318
0.252685 0.240689 -0.188155
0.459081 0.116513 -0.090683
0.698357 0.111067 0.115247
0.597645 0.700907 0.011346
0.600021 0.70282 0.002099
0.403876 0.700501 0.327738
0.428941 0.199455 -0.776155
0.607605 0.12584 0.136029
0.113958 0.121244 -0.060969
0.700927 0.55389 -0.044508
0.70164 0.423363 0.325495
0.113015 0.430713 0.396261
0.370263 0.701176 0.397462
0.240807 0.258363 -0.191254
0.502277 0.111119 -0.080128
0.123611 0.566935 0.249429
0.703649 0.120689 0.104041
0.695612 0.454705 0.404529
0.694922 0.203578 0.153996
0.113861 0.62023 -0.177049
0.211726 0.497448 -0.775387
0.12058 0.114739 0.181316
0.119288 0.339292 -0.090531
0.501897 0.124437 -0.183384
0.221079 0.588897 0.211061
0.608762 0.696054 -0.180893
0.701277 0.222828 0.222095
0.116792 0.608046 0.150316
0.702464 0.122286 -0.109283
0.541127 0.239137 -0.769353
0.115654 0.336491 -0.093355
0.200752 0.503541 -0.190893
0.115231 0.595049 0.016946
0.117036 0.611176 0.101952
0.617319 0.702914 0.081019
0.546764 0.568711 -0.772569
0.693781 0.700926 0.307827
0.118714 0.587872 0.221309
0.375855 0.636261 -0.185573
0.526946 0.23369 0.995843
0.196116 0.608956 0.157359
0.492871 0.618655 0.410291
0.46404 0.700845 -0.098561
0.69505 0.217156 0.030674
0.211154 0.315607 0.99418
0.474099 0.122424 0.405095
0.196684 0.701963 0.156933
0.112431 0.210043 0.050841
0.248104 0.556648 -0.77083
0.205603 0.701047 0.185318
0.615648 0.437045 0.99916
0.6023 0.485079 -0.77569
0.700669 0.111186 0.106756
0.699381 0.111565 0.210011
0.178633 0.455571 -0.187146
0.116628 0.11684 -0.005371
0.263194 0.695811 -0.182199
0.626593 0.457573 0.416502
0.115643 0.127711 -0.176037
0.116552 0.118142 0.066467
0.276229 0.222476 -0.188049
0.319973 0.698015 0.402535
0.701356 0.557233 0.267361
0.333725 0.621862 -0.19041
0.59667 0.693759 -0.181727
0.700092 0.320267 0.305071
0.185388 0.388568 0.414894
0.629131 0.440752 -0.196509
0.703646 0.116601 0.10482
0.432762 0.114084 0.322724
0.209173 0.519716 0.413139
0.497017 0.120031 0.404504
0.194369 0.333592 -0.190448
0.488055 0.120406 0.302462
0.523302 0.204637 -0.186736
0.303153 0.599223 0.99234
0.11287 0.245314 -0.021651
0.123029 0.601164 0.162785
0.316067 0.201128 -0.188265
0.591906 0.542027 0.411634
0.124342 0.701979 -0.117914
0.556557 0.694637 -0.038514
0.115468 0.118542 -0.100463
0.699759 0.616914 0.146259
0.605503 0.702458 0.023297
0.6906 0.200403 0.118064
0.621423 0.327895 -0.18927
0.396275 0.700711 0.32815
0.700883 0.117002 -0.144404
0.692625 0.5904 0.210416
0.703606 0.118746 -0.019041
0.384194 0.633599 0.412469
0.143883 0.701534 -0.17847
0.459133 0.621649 -0.189498
0.547698 0.122803 0.266226
0.355371 0.619336 0.993974
0.257661 0.248597 -0.767773
0.220491 0.504687 0.997753
0.507266 0.21957 -0.774465
0.338952 0.121245 -0.182668
0.530679 0.594404 -0.187589
0.286064 0.235649 -0.7761
0.699961 0.111472 0.194125
0.11505 0.490416 -0.083809
0.69727 0.438117 0.404321
0.567864 0.55893 -0.196718
0.116324 0.698936 0.075912
0.696511 0.306489 -0.180282
0.693753 0.701292 -0.002504
0.178784 0.698568 -0.180275
0.702176 0.623458 0.129365
0.69659 0.699822 0.329204
0.120305 0.245314 0.247319
0.70062 0.477043 0.313995
0.454666 0.114858 0.39892
0.700783 0.695119 0.166082
0.120088 0.113302 -0.134833
0.699371 0.490918 0.40366
0.115926 0.589193 0.000832
0.609691 0.702717 0.033758
0.617858 0.432508 -0.775893
0.694224 0.600972 0.404483
0.616356 0.119996 0.404083
0.230054 0.261709 -0.187453
0.59785 0.289635 0.413566
0.203409 0.325852 0.415701
0.443545 0.695207 -0.183162
0.411611 0.116042 -0.101545
0.701617 0.246291 -0.034166
0.59872 0.121803 0.045177
0.699925 0.20567 0.399658
0.114872 0.23865 0.39873
0.699893 0.182138 0.400202
0.434623 0.631612 0.410875
0.321974 0.701677 -0.176218
0.428754 0.637999 0.407896
0.702815 0.457154 0.323519
0.113598 0.396174 0.396262
0.338649 0.613993 0.994143
0.638677 0.400543 0.409347
0.703646 0.119442 0.094535
0.697619 0.594899 0.010929
0.700521 0.361284 0.39864
0.112498 0.369908 -0.172703
0.126531 0.688925 0.40553
0.609171 0.693579 0.058687
0.121491 0.112997 -0.131668
0.439445 0.635689 -0.185511
0.308575 0.612811 -0.192017
0.116339 0.697991 -0.014043
0.119099 0.555233 0.402444
0.241932 0.115395 -0.026663
0.200769 0.311315 0.409299
0.702431 0.118711 -0.103171
0.119864 0.564367 0.255289
0.615207 0.307055 -0.188289
0.590566 0.276582 -0.196288
0.476664 0.614699 -0.196446
0.407313 0.18827 0.989448
0.691841 0.354251 -0.183408
0.603176 0.503458 -0.767223
0.577878 0.282294 -0.773398
0.112018 0.443083 0.324357
0.703651 0.11653 0.029216
0.116267 0.699158 0.020542
0.701514 0.27004 -0.060132
0.697336 0.424258 0.320193
0.279584 0.695255 -0.055183
0.703635 0.118581 0.0683
0.517318 0.220825 0.992116
0.701864 0.56412 -0.038123
0.334561 0.693184 0.309207
0.440412 0.626745 -0.766781
0.696579 0.571055 0.23987
0.620793 0.618426 0.100772
0.623478 0.351172 -0.196023
0.702039 0.693597 -0.138977
0.594365 0.695839 0.011792
0.261003 0.123034 0.40557
0.45875 0.698703 0.401846
0.367801 0.612536 0.999395
0.279025 0.119082 0.404505
0.631248 0.442194 -0.193001
0.191506 0.701541 0.098749
0.668344 0.115242 -0.177788
0.294774 0.692362 0.405832
0.563653 0.557714 -0.769735
0.116806 0.116958 -0.085642
0.703116 0.118519 0.280868
0.113844 0.550346 -0.1747
0.114912 0.381093 0.400362
0.116452 0.543698 -0.179377
0.702589 0.429093 -0.104505
0.116452 0.698577 -0.158815
0.17468 0.696827 -0.182035
0.214123 0.113905 0.398426
0.116953 0.56007 -0.17842
0.493371 0.21767 -0.776081
0.560476 0.255809 0.992453
0.180521 0.397773 0.412118
0.303873 0.112922 0.300564
0.618941 0.620081 0.119664
0.694926 0.513654 0.40506
0.184719 0.357106 0.409801
0.593665 0.702054 -0.007101
0.425868 0.631051 0.415192
0.208457 0.700824 0.19124
0.228994 0.69749 -0.010661
0.70306 0.117296 -0.04891
0.399656 0.618408 0.998032
0.113959 0.118831 -0.144023
0.121228 0.598625 0.177867
0.444897 0.628265 -0.186096
0.697223 0.11114 0.134268
0.697884 0.111043 0.092246
0.121148 0.694136 0.400933
0.318836 0.194827 0.410415
0.194528 0.35391 -0.767896
0.700433 0.58328 0.230133
0.695023 0.370123 -0.094914
0.693879 0.70148 -0.091149
0.470245 0.1945 -0.194239
0.625071 0.351149 0.413714
0.119333 0.519608 -0.066129
0.282297 0.224593 0.416712
0.113114 0.197886 0.163669
0.220489 0.296915 -0.773192
0.202113 0.596416 0.182582
0.611904 0.703225 0.026531
0.119787 0.114712 -0.005925
0.694423 0.602103 0.030062
0.698215 0.618319 0.127682
0.111855 0.218182 0.026555
0.225418 0.2821 0.418026
0.116085 0.282718 -0.178929
0.695621 0.310084 0.40472
0.46577 0.620146 -0.189029
0.235456 0.272071 -0.767941
0.119531 0.699771 -0.16895
0.531806 0.586586 -0.195166
0.493126 0.603864 0.99689
0.627985 0.115871 0.400771
0.379758 0.695015 -0.099539
0.519537 0.203584 -0.186599
0.60305 0.700645 0.19061
0.483632 0.701582 0.398098
0.550081 0.572873 0.989336
0.385744 0.180699 0.413522
0.697774 0.11107 -0.010009
0.698197 0.206481 0.059452
0.364195 0.702055 -0.172347
0.603303 0.534753 0.40922
0.225964 0.52514 0.992979
0.654791 0.116207 0.400082
0.182141 0.460432 -0.187978
0.699726 0.589799 0.399212
0.694099 0.337161 -0.182798
0.118881 0.162757 0.402102
0.596475 0.698488 0.203806
0.51729 0.114314 0.29365
0.116905 0.263096 0.269375
0.403044 0.191831 0.994303
0.319578 0.20254 -0.190613
0.702997 0.117077 0.240148
0.193911 0.112518 0.158773
0.322921 0.203662 -0.196115
0.702983 0.198379 0.0514
0.695308 0.428284 0.404867
0.666346 0.117995 0.402948
0.225996 0.695491 0.21839
0.343929 0.61733 0.990282
0.116374 0.698236 0.271452
0.635712 0.381491 -0.187124
0.309745 0.208624 -0.192157
0.611549 0.617382 0.151944
0.536061 0.120541 -0.050716
0.488694 0.117487 0.402924
0.200156 0.693914 -0.182569
0.115107 0.685551 -0.178779
0.117334 0.698491 0.311976
0.259985 0.699267 -0.178595
0.499885 0.602402 0.99639
0.698489 0.131463 0.402762
0.701656 0.673927 -0.172828
0.700877 0.695981 0.393007
0.620323 0.46005 0.99285
0.615833 0.621357 0.132884
0.201601 0.495161 -0.198196
0.117771 0.227605 0.40244
0.208255 0.600633 0.181291
0.616416 0.702927 0.074205
0.121049 0.114761 0.39219
0.593521 0.507974 -0.774381
0.694447 0.527217 0.285888
0.702837 0.42536 -0.106511
0.69835 0.112139 0.252158
0.19221 0.376242 0.990604
0.53317 0.588322 0.989015
0.697958 0.184675 0.402396
0.614074 0.471438 0.99685
0.12054 0.483508 -0.082719
0.189411 0.411736 0.989431
0.698444 0.266961 0.40237
0.702116 0.441342 0.322978
0.601992 0.293537 -0.195352
0.693719 0.603067 0.184182
0.115714 0.156763 0.399024
0.490465 0.69403 -0.082566
0.181099 0.405999 0.413788
0.193118 0.112562 0.154866
0.221655 0.293793 0.994472
0.619002 0.390741 -0.776439
0.118916 0.539809 0.401305
0.700869 0.619506 0.139024
0.268446 0.227166 -0.188307
0.210608 0.32323 -0.776832
0.702232 0.190562 0.109977
0.587929 0.540389 0.417061
0.694295 0.199919 0.12447
0.607475 0.302988 -0.193331
0.205218 0.502715 0.41743
0.519532 0.696543 -0.069152
0.116102 0.697039 0.308841
0.700495 0.604037 0.019955
0.380602 0.119778 0.316778
0.120102 0.11431 0.100193
0.694325 0.436834 -0.094782
0.115206 0.220495 0.221523
0.318769 0.213594 0.997387
0.518265 0.225997 0.996051
0.70281 0.411818 0.328907
0.121172 0.584987 0.223246
0.318268 0.700689 -0.178287
0.616465 0.318159 -0.191141
0.698636 0.484354 -0.178867
0.51339 0.110986 -0.078355
0.234752 0.692799 0.230181
0.497218 0.693251 -0.183274
0.620518 0.695798 -0.180434
0.701458 0.202218 0.058807
0.458063 0.193035 0.989113
0.231789 0.524166 0.997666
0.693191 0.4951 -0.076654
0.505893 0.697227 0.403842
0.193963 0.700908 0.112639
0.610829 0.612024 0.164236
0.699592 0.238202 0.400025
0.226189 0.116476 -0.177565
0.519417 0.693319 -0.067102
0.415854 0.692821 0.321517
0.398942 0.629515 -0.76683
0.408041 0.63505 0.410827
0.2138 0.501725 0.994417
0.609459 0.613704 0.052934
0.703538 0.12316 0.256003
0.418302 0.690058 0.406353
0.115987 0.252164 0.259647
0.185473 0.442685 0.418391
0.338012 0.60801 -0.775177
0.631755 0.396326 -0.192529
